x,y,z
762.0,134.0,48.82353
762.0,136.0,49.60784
762.0,138.0,50.0
762.0,140.0,50.0
762.0,142.0,50.0
762.0,144.0,50.0
762.0,146.0,50.0
762.0,148.0,49.60784
762.0,150.0,48.82353
762.0,152.0,47.2549
762.0,154.0,43.92157
762.0,156.0,38.82353
762.0,158.0,31.764706
762.0,160.0,24.117645
762.0,162.0,15.686272
762.0,186.0,19.411764
762.0,188.0,27.058823
762.0,190.0,34.313725
762.0,192.0,39.80392
762.0,194.0,44.313725
762.0,196.0,47.058823
762.0,198.0,48.62745
762.0,200.0,49.411766
762.0,202.0,49.80392
762.0,204.0,50.0
762.0,206.0,50.0
762.0,208.0,50.0
762.0,210.0,50.0
762.0,212.0,50.0
762.0,214.0,50.0
762.0,216.0,50.0
762.0,218.0,50.0
762.0,220.0,50.0
762.0,222.0,49.80392
762.0,224.0,49.411766
762.0,226.0,48.431374
762.0,228.0,45.882355
762.0,230.0,41.568626
762.0,232.0,35.88235
762.0,234.0,28.431372
762.0,236.0,21.372547
762.0,238.0,14.901958
764.0,82.0,19.411764
764.0,84.0,27.450981
764.0,86.0,35.490196
764.0,88.0,42.15686
764.0,90.0,46.27451
764.0,92.0,48.431374
764.0,94.0,49.215687
764.0,96.0,49.215687
764.0,98.0,48.62745
764.0,100.0,47.2549
764.0,102.0,44.313725
764.0,104.0,39.411766
764.0,106.0,32.941177
764.0,108.0,25.294117
764.0,110.0,18.235292
764.0,122.0,17.647057
764.0,124.0,25.294117
764.0,126.0,32.54902
764.0,128.0,39.019608
764.0,130.0,44.117645
764.0,132.0,47.45098
764.0,134.0,49.019608
764.0,136.0,49.60784
764.0,138.0,50.0
764.0,140.0,50.0
764.0,142.0,50.0
764.0,144.0,50.0
764.0,146.0,50.0
764.0,148.0,49.411766
764.0,150.0,48.431374
764.0,152.0,46.07843
764.0,154.0,42.15686
764.0,156.0,36.47059
764.0,158.0,29.019608
764.0,160.0,21.372547
764.0,162.0,13.333332
764.0,184.0,13.333332
764.0,186.0,20.392155
764.0,188.0,27.843138
764.0,190.0,35.098038
764.0,192.0,40.784313
764.0,194.0,45.098038
764.0,196.0,47.64706
764.0,198.0,49.019608
764.0,200.0,49.60784
764.0,202.0,50.0
764.0,204.0,50.0
764.0,206.0,50.0
764.0,208.0,50.0
764.0,210.0,50.0
764.0,212.0,50.0
764.0,214.0,50.0
764.0,216.0,50.0
764.0,218.0,50.0
764.0,220.0,50.0
764.0,222.0,49.80392
764.0,224.0,49.215687
764.0,226.0,48.039215
764.0,228.0,45.490196
764.0,230.0,40.980392
764.0,232.0,35.098038
764.0,234.0,27.843138
764.0,236.0,20.392155
764.0,238.0,14.3137245
766.0,82.0,19.411764
766.0,84.0,27.058823
766.0,86.0,35.294117
766.0,88.0,42.15686
766.0,90.0,46.27451
766.0,92.0,48.235294
766.0,94.0,49.019608
766.0,96.0,49.215687
766.0,98.0,48.62745
766.0,100.0,47.058823
766.0,102.0,44.313725
766.0,104.0,39.411766
766.0,106.0,32.54902
766.0,108.0,24.901958
766.0,110.0,17.647057
766.0,122.0,17.647057
766.0,124.0,25.686274
766.0,126.0,32.941177
766.0,128.0,39.215687
766.0,130.0,44.313725
766.0,132.0,47.45098
766.0,134.0,49.019608
766.0,136.0,49.60784
766.0,138.0,50.0
766.0,140.0,50.0
766.0,142.0,50.0
766.0,144.0,50.0
766.0,146.0,49.80392
766.0,148.0,49.215687
766.0,150.0,47.843136
766.0,152.0,45.098038
766.0,154.0,40.588234
766.0,156.0,34.313725
766.0,158.0,26.666666
766.0,160.0,19.411764
766.0,184.0,13.333332
766.0,186.0,20.392155
766.0,188.0,28.039215
766.0,190.0,35.294117
766.0,192.0,40.784313
766.0,194.0,45.098038
766.0,196.0,47.64706
766.0,198.0,49.019608
766.0,200.0,49.60784
766.0,202.0,50.0
766.0,204.0,50.0
766.0,206.0,50.0
766.0,208.0,50.0
766.0,210.0,50.0
766.0,212.0,50.0
766.0,214.0,50.0
766.0,216.0,50.0
766.0,218.0,50.0
766.0,220.0,50.0
766.0,222.0,49.60784
766.0,224.0,48.82353
766.0,226.0,47.2549
766.0,228.0,44.117645
766.0,230.0,39.215687
766.0,232.0,32.941177
766.0,234.0,25.686274
766.0,236.0,18.823528
768.0,82.0,18.235292
768.0,84.0,27.058823
768.0,86.0,35.294117
768.0,88.0,41.764706
768.0,90.0,46.07843
768.0,92.0,48.431374
768.0,94.0,49.215687
768.0,96.0,49.215687
768.0,98.0,48.62745
768.0,100.0,47.058823
768.0,102.0,44.117645
768.0,104.0,39.215687
768.0,106.0,32.54902
768.0,108.0,24.901958
768.0,110.0,17.058823
768.0,122.0,17.058823
768.0,124.0,25.686274
768.0,126.0,32.941177
768.0,128.0,39.411766
768.0,130.0,44.509804
768.0,132.0,47.2549
768.0,134.0,48.82353
768.0,136.0,49.60784
768.0,138.0,50.0
768.0,140.0,50.0
768.0,142.0,50.0
768.0,144.0,50.0
768.0,146.0,49.60784
768.0,148.0,48.82353
768.0,150.0,47.058823
768.0,152.0,43.72549
768.0,154.0,38.62745
768.0,156.0,31.764706
768.0,158.0,23.137253
768.0,160.0,14.901958
768.0,184.0,13.333332
768.0,186.0,19.411764
768.0,188.0,26.666666
768.0,190.0,34.117645
768.0,192.0,39.80392
768.0,194.0,44.509804
768.0,196.0,47.2549
768.0,198.0,48.82353
768.0,200.0,49.411766
768.0,202.0,49.80392
768.0,204.0,50.0
768.0,206.0,50.0
768.0,208.0,50.0
768.0,210.0,50.0
768.0,212.0,50.0
768.0,214.0,50.0
768.0,216.0,50.0
768.0,218.0,50.0
768.0,220.0,49.80392
768.0,222.0,49.411766
768.0,224.0,48.431374
768.0,226.0,46.27451
768.0,228.0,42.54902
768.0,230.0,37.2549
768.0,232.0,30.0
768.0,234.0,22.745096
768.0,236.0,15.686272
770.0,82.0,18.235292
770.0,84.0,26.666666
770.0,86.0,35.098038
770.0,88.0,41.764706
770.0,90.0,46.07843
770.0,92.0,48.235294
770.0,94.0,49.019608
770.0,96.0,49.019608
770.0,98.0,48.62745
770.0,100.0,47.058823
770.0,102.0,44.117645
770.0,104.0,39.019608
770.0,106.0,32.54902
770.0,108.0,24.901958
770.0,110.0,17.058823
770.0,122.0,17.647057
770.0,124.0,25.686274
770.0,126.0,32.941177
770.0,128.0,39.411766
770.0,130.0,44.509804
770.0,132.0,47.45098
770.0,134.0,49.019608
770.0,136.0,49.60784
770.0,138.0,50.0
770.0,140.0,50.0
770.0,142.0,50.0
770.0,144.0,49.80392
770.0,146.0,49.411766
770.0,148.0,48.431374
770.0,150.0,46.27451
770.0,152.0,42.7451
770.0,154.0,36.666664
770.0,156.0,29.80392
770.0,158.0,21.372547
770.0,186.0,17.647057
770.0,188.0,24.509802
770.0,190.0,31.960783
770.0,192.0,37.843136
770.0,194.0,43.137253
770.0,196.0,46.27451
770.0,198.0,48.039215
770.0,200.0,49.215687
770.0,202.0,49.80392
770.0,204.0,50.0
770.0,206.0,50.0
770.0,208.0,50.0
770.0,210.0,50.0
770.0,212.0,50.0
770.0,214.0,50.0
770.0,216.0,50.0
770.0,218.0,50.0
770.0,220.0,49.60784
770.0,222.0,48.82353
770.0,224.0,47.45098
770.0,226.0,44.509804
770.0,228.0,39.80392
770.0,230.0,33.92157
770.0,232.0,26.470589
770.0,234.0,19.411764
772.0,82.0,18.235292
772.0,84.0,26.666666
772.0,86.0,34.901962
772.0,88.0,41.764706
772.0,90.0,46.07843
772.0,92.0,48.235294
772.0,94.0,49.019608
772.0,96.0,49.215687
772.0,98.0,48.62745
772.0,100.0,47.2549
772.0,102.0,44.117645
772.0,104.0,39.215687
772.0,106.0,32.54902
772.0,108.0,24.509802
772.0,110.0,17.058823
772.0,122.0,18.235292
772.0,124.0,26.078432
772.0,126.0,32.941177
772.0,128.0,39.411766
772.0,130.0,44.509804
772.0,132.0,47.45098
772.0,134.0,49.019608
772.0,136.0,49.60784
772.0,138.0,50.0
772.0,140.0,50.0
772.0,142.0,50.0
772.0,144.0,49.80392
772.0,146.0,49.215687
772.0,148.0,47.843136
772.0,150.0,45.294117
772.0,152.0,40.980392
772.0,154.0,35.294117
772.0,156.0,27.058823
772.0,158.0,18.235292
772.0,186.0,16.27451
772.0,188.0,22.745096
772.0,190.0,29.411764
772.0,192.0,35.294117
772.0,194.0,40.784313
772.0,196.0,44.705883
772.0,198.0,46.862743
772.0,200.0,48.431374
772.0,202.0,49.215687
772.0,204.0,49.80392
772.0,206.0,49.80392
772.0,208.0,50.0
772.0,210.0,50.0
772.0,212.0,50.0
772.0,214.0,50.0
772.0,216.0,50.0
772.0,218.0,49.80392
772.0,220.0,49.215687
772.0,222.0,48.039215
772.0,224.0,46.27451
772.0,226.0,42.15686
772.0,228.0,36.47059
772.0,230.0,29.80392
772.0,232.0,22.35294
772.0,234.0,14.901958
774.0,82.0,18.235292
774.0,84.0,26.470589
774.0,86.0,34.901962
774.0,88.0,41.37255
774.0,90.0,46.07843
774.0,92.0,48.431374
774.0,94.0,49.019608
774.0,96.0,49.019608
774.0,98.0,48.62745
774.0,100.0,47.058823
774.0,102.0,43.92157
774.0,104.0,39.019608
774.0,106.0,32.54902
774.0,108.0,24.901958
774.0,110.0,17.058823
774.0,122.0,17.647057
774.0,124.0,26.078432
774.0,126.0,32.941177
774.0,128.0,39.411766
774.0,130.0,44.509804
774.0,132.0,47.45098
774.0,134.0,49.019608
774.0,136.0,49.60784
774.0,138.0,50.0
774.0,140.0,50.0
774.0,142.0,50.0
774.0,144.0,49.60784
774.0,146.0,49.019608
774.0,148.0,47.45098
774.0,150.0,44.509804
774.0,152.0,39.411766
774.0,154.0,33.137253
774.0,156.0,26.078432
774.0,188.0,19.411764
774.0,190.0,25.686274
774.0,192.0,31.960783
774.0,194.0,37.45098
774.0,196.0,42.15686
774.0,198.0,45.098038
774.0,200.0,47.058823
774.0,202.0,48.431374
774.0,204.0,49.215687
774.0,206.0,49.60784
774.0,208.0,49.80392
774.0,210.0,49.80392
774.0,212.0,49.80392
774.0,214.0,49.80392
774.0,216.0,49.80392
774.0,218.0,49.411766
774.0,220.0,48.62745
774.0,222.0,46.862743
774.0,224.0,44.313725
774.0,226.0,39.019608
774.0,228.0,32.54902
774.0,230.0,25.294117
774.0,232.0,17.647057
776.0,82.0,17.647057
776.0,84.0,26.470589
776.0,86.0,34.313725
776.0,88.0,41.568626
776.0,90.0,45.882355
776.0,92.0,48.235294
776.0,94.0,49.019608
776.0,96.0,49.019608
776.0,98.0,48.62745
776.0,100.0,47.2549
776.0,102.0,44.313725
776.0,104.0,39.019608
776.0,106.0,31.960783
776.0,108.0,24.509802
776.0,110.0,17.058823
776.0,122.0,17.647057
776.0,124.0,25.686274
776.0,126.0,33.333332
776.0,128.0,39.60784
776.0,130.0,44.509804
776.0,132.0,47.45098
776.0,134.0,49.019608
776.0,136.0,49.60784
776.0,138.0,50.0
776.0,140.0,50.0
776.0,142.0,50.0
776.0,144.0,49.60784
776.0,146.0,48.82353
776.0,148.0,46.862743
776.0,150.0,43.52941
776.0,152.0,38.235294
776.0,154.0,31.568626
776.0,156.0,24.509802
776.0,188.0,15.686272
776.0,190.0,22.745096
776.0,192.0,28.431372
776.0,194.0,33.92157
776.0,196.0,39.019608
776.0,198.0,42.7451
776.0,200.0,45.294117
776.0,202.0,47.058823
776.0,204.0,48.235294
776.0,206.0,48.82353
776.0,208.0,49.215687
776.0,210.0,49.411766
776.0,212.0,49.411766
776.0,214.0,49.411766
776.0,216.0,49.215687
776.0,218.0,48.82353
776.0,220.0,47.45098
776.0,222.0,45.098038
776.0,224.0,41.568626
776.0,226.0,35.88235
776.0,228.0,28.431372
776.0,230.0,20.98039
776.0,232.0,13.333332
778.0,82.0,17.647057
778.0,84.0,26.078432
778.0,86.0,34.313725
778.0,88.0,41.17647
778.0,90.0,45.882355
778.0,92.0,48.235294
778.0,94.0,49.019608
778.0,96.0,49.019608
778.0,98.0,48.431374
778.0,100.0,47.058823
778.0,102.0,44.117645
778.0,104.0,39.019608
778.0,106.0,31.960783
778.0,108.0,24.509802
778.0,110.0,17.058823
778.0,122.0,18.235292
778.0,124.0,25.686274
778.0,126.0,33.333332
778.0,128.0,39.411766
778.0,130.0,44.509804
778.0,132.0,47.45098
778.0,134.0,49.019608
778.0,136.0,49.60784
778.0,138.0,50.0
778.0,140.0,50.0
778.0,142.0,49.80392
778.0,144.0,49.411766
778.0,146.0,48.431374
778.0,148.0,46.27451
778.0,150.0,42.7451
778.0,152.0,36.862743
778.0,154.0,29.80392
778.0,156.0,18.235292
778.0,188.0,13.333332
778.0,190.0,18.235292
778.0,192.0,23.529411
778.0,194.0,29.411764
778.0,196.0,34.509804
778.0,198.0,38.82353
778.0,200.0,41.960785
778.0,202.0,44.509804
778.0,204.0,46.07843
778.0,206.0,47.2549
778.0,208.0,48.039215
778.0,210.0,48.431374
778.0,212.0,48.62745
778.0,214.0,48.431374
778.0,216.0,48.235294
778.0,218.0,47.2549
778.0,220.0,45.490196
778.0,222.0,42.35294
778.0,224.0,38.039215
778.0,226.0,31.568626
778.0,228.0,24.117645
778.0,230.0,16.27451
780.0,82.0,17.647057
780.0,84.0,26.078432
780.0,86.0,33.92157
780.0,88.0,41.17647
780.0,90.0,45.686275
780.0,92.0,48.235294
780.0,94.0,49.019608
780.0,96.0,49.019608
780.0,98.0,48.62745
780.0,100.0,47.058823
780.0,102.0,44.117645
780.0,104.0,39.019608
780.0,106.0,31.960783
780.0,108.0,24.509802
780.0,110.0,17.058823
780.0,122.0,18.235292
780.0,124.0,25.686274
780.0,126.0,33.137253
780.0,128.0,39.411766
780.0,130.0,44.509804
780.0,132.0,47.45098
780.0,134.0,48.82353
780.0,136.0,49.60784
780.0,138.0,49.80392
780.0,140.0,49.80392
780.0,142.0,49.80392
780.0,144.0,49.215687
780.0,146.0,48.235294
780.0,148.0,45.686275
780.0,150.0,41.568626
780.0,152.0,35.294117
780.0,154.0,28.431372
780.0,172.0,14.3137245
780.0,174.0,13.333332
780.0,190.0,14.901958
780.0,192.0,18.823528
780.0,194.0,24.509802
780.0,196.0,29.411764
780.0,198.0,34.117645
780.0,200.0,37.2549
780.0,202.0,40.588234
780.0,204.0,42.7451
780.0,206.0,44.313725
780.0,208.0,45.490196
780.0,210.0,46.07843
780.0,212.0,46.47059
780.0,214.0,46.47059
780.0,216.0,46.07843
780.0,218.0,44.705883
780.0,220.0,42.7451
780.0,222.0,38.82353
780.0,224.0,33.52941
780.0,226.0,27.058823
780.0,228.0,19.411764
780.0,230.0,13.333332
782.0,82.0,17.647057
782.0,84.0,25.686274
782.0,86.0,33.52941
782.0,88.0,40.784313
782.0,90.0,45.490196
782.0,92.0,48.039215
782.0,94.0,48.82353
782.0,96.0,49.019608
782.0,98.0,48.62745
782.0,100.0,47.058823
782.0,102.0,43.92157
782.0,104.0,39.019608
782.0,106.0,32.352943
782.0,108.0,24.901958
782.0,110.0,17.058823
782.0,122.0,18.235292
782.0,124.0,25.294117
782.0,126.0,33.137253
782.0,128.0,39.411766
782.0,130.0,44.509804
782.0,132.0,47.45098
782.0,134.0,48.82353
782.0,136.0,49.60784
782.0,138.0,49.80392
782.0,140.0,49.80392
782.0,142.0,49.80392
782.0,144.0,49.019608
782.0,146.0,47.843136
782.0,148.0,45.098038
782.0,150.0,40.784313
782.0,152.0,34.313725
782.0,154.0,27.058823
782.0,170.0,14.901958
782.0,172.0,17.058823
782.0,174.0,17.647057
782.0,176.0,15.686272
782.0,192.0,14.3137245
782.0,194.0,19.411764
782.0,196.0,24.117645
782.0,198.0,28.431372
782.0,200.0,32.54902
782.0,202.0,35.88235
782.0,204.0,38.431374
782.0,206.0,40.19608
782.0,208.0,41.568626
782.0,210.0,42.54902
782.0,212.0,42.941177
782.0,214.0,42.941177
782.0,216.0,42.54902
782.0,218.0,40.980392
782.0,220.0,38.62745
782.0,222.0,34.509804
782.0,224.0,29.411764
782.0,226.0,23.137253
782.0,228.0,15.686272
784.0,82.0,17.058823
784.0,84.0,25.294117
784.0,86.0,33.92157
784.0,88.0,40.980392
784.0,90.0,45.490196
784.0,92.0,48.235294
784.0,94.0,49.019608
784.0,96.0,49.019608
784.0,98.0,48.62745
784.0,100.0,47.058823
784.0,102.0,43.92157
784.0,104.0,39.411766
784.0,106.0,32.54902
784.0,108.0,24.509802
784.0,110.0,18.235292
784.0,122.0,17.647057
784.0,124.0,25.686274
784.0,126.0,33.137253
784.0,128.0,39.60784
784.0,130.0,44.509804
784.0,132.0,47.45098
784.0,134.0,49.019608
784.0,136.0,49.60784
784.0,138.0,49.80392
784.0,140.0,49.80392
784.0,142.0,49.60784
784.0,144.0,49.019608
784.0,146.0,47.64706
784.0,148.0,44.509804
784.0,150.0,39.80392
784.0,152.0,33.333332
784.0,154.0,25.294117
784.0,168.0,13.333332
784.0,170.0,17.058823
784.0,172.0,20.392155
784.0,174.0,20.392155
784.0,176.0,19.80392
784.0,178.0,16.27451
784.0,180.0,13.333332
784.0,194.0,14.3137245
784.0,196.0,18.823528
784.0,198.0,22.745096
784.0,200.0,26.470589
784.0,202.0,29.80392
784.0,204.0,32.352943
784.0,206.0,34.509804
784.0,208.0,35.68627
784.0,210.0,37.2549
784.0,212.0,37.647057
784.0,214.0,37.843136
784.0,216.0,37.2549
784.0,218.0,35.88235
784.0,220.0,33.137253
784.0,222.0,29.411764
784.0,224.0,24.117645
784.0,226.0,18.823528
786.0,82.0,16.27451
786.0,84.0,25.294117
786.0,86.0,33.333332
786.0,88.0,40.784313
786.0,90.0,45.294117
786.0,92.0,48.039215
786.0,94.0,48.82353
786.0,96.0,49.019608
786.0,98.0,48.62745
786.0,100.0,47.058823
786.0,102.0,44.117645
786.0,104.0,39.215687
786.0,106.0,32.54902
786.0,108.0,24.901958
786.0,110.0,17.647057
786.0,122.0,17.647057
786.0,124.0,25.294117
786.0,126.0,32.941177
786.0,128.0,39.411766
786.0,130.0,44.509804
786.0,132.0,47.45098
786.0,134.0,48.82353
786.0,136.0,49.60784
786.0,138.0,49.80392
786.0,140.0,49.80392
786.0,142.0,49.60784
786.0,144.0,48.82353
786.0,146.0,47.2549
786.0,148.0,44.117645
786.0,150.0,39.019608
786.0,152.0,32.352943
786.0,154.0,19.80392
786.0,168.0,14.901958
786.0,170.0,19.411764
786.0,172.0,22.745096
786.0,174.0,24.117645
786.0,176.0,23.529411
786.0,178.0,20.98039
786.0,180.0,17.058823
786.0,196.0,14.3137245
786.0,198.0,16.27451
786.0,200.0,20.392155
786.0,202.0,23.137253
786.0,204.0,25.294117
786.0,206.0,27.450981
786.0,208.0,29.019608
786.0,210.0,30.392157
786.0,212.0,30.980392
786.0,214.0,31.17647
786.0,216.0,30.980392
786.0,218.0,29.411764
786.0,220.0,26.666666
786.0,222.0,23.137253
786.0,224.0,19.411764
788.0,82.0,16.27451
788.0,84.0,24.901958
788.0,86.0,32.941177
788.0,88.0,40.39216
788.0,90.0,45.294117
788.0,92.0,48.039215
788.0,94.0,48.82353
788.0,96.0,49.019608
788.0,98.0,48.62745
788.0,100.0,47.058823
788.0,102.0,44.117645
788.0,104.0,39.019608
788.0,106.0,32.352943
788.0,108.0,24.901958
788.0,110.0,17.647057
788.0,122.0,17.058823
788.0,124.0,24.901958
788.0,126.0,32.941177
788.0,128.0,39.411766
788.0,130.0,44.313725
788.0,132.0,47.45098
788.0,134.0,48.82353
788.0,136.0,49.60784
788.0,138.0,49.80392
788.0,140.0,49.80392
788.0,142.0,49.60784
788.0,144.0,48.62745
788.0,146.0,47.058823
788.0,148.0,43.72549
788.0,150.0,38.235294
788.0,152.0,31.764706
788.0,154.0,13.333332
788.0,168.0,16.27451
788.0,170.0,21.372547
788.0,172.0,25.294117
788.0,174.0,27.450981
788.0,176.0,27.450981
788.0,178.0,25.686274
788.0,180.0,21.764704
788.0,182.0,17.058823
788.0,200.0,14.3137245
788.0,202.0,17.058823
788.0,204.0,18.823528
788.0,206.0,20.392155
788.0,208.0,22.35294
788.0,210.0,22.745096
788.0,212.0,24.117645
788.0,214.0,24.117645
788.0,216.0,23.529411
788.0,218.0,23.137253
788.0,220.0,20.98039
788.0,222.0,17.647057
788.0,224.0,14.3137245
790.0,82.0,15.686272
790.0,84.0,24.117645
790.0,86.0,32.54902
790.0,88.0,40.19608
790.0,90.0,45.098038
790.0,92.0,47.843136
790.0,94.0,48.82353
790.0,96.0,49.019608
790.0,98.0,48.82353
790.0,100.0,47.058823
790.0,102.0,44.313725
790.0,104.0,39.411766
790.0,106.0,32.941177
790.0,108.0,25.294117
790.0,110.0,17.647057
790.0,122.0,17.647057
790.0,124.0,25.294117
790.0,126.0,32.941177
790.0,128.0,39.215687
790.0,130.0,44.313725
790.0,132.0,47.45098
790.0,134.0,48.82353
790.0,136.0,49.60784
790.0,138.0,49.80392
790.0,140.0,49.80392
790.0,142.0,49.411766
790.0,144.0,48.62745
790.0,146.0,46.666668
790.0,148.0,43.137253
790.0,150.0,37.45098
790.0,152.0,30.588236
790.0,168.0,18.235292
790.0,170.0,23.137253
790.0,172.0,27.843138
790.0,174.0,30.588236
790.0,176.0,31.17647
790.0,178.0,29.80392
790.0,180.0,26.470589
790.0,182.0,20.98039
790.0,184.0,17.058823
790.0,206.0,14.901958
790.0,208.0,14.901958
790.0,210.0,15.686272
790.0,212.0,16.27451
790.0,214.0,16.27451
790.0,216.0,16.27451
790.0,218.0,16.27451
790.0,220.0,14.3137245
792.0,82.0,14.901958
792.0,84.0,23.529411
792.0,86.0,32.54902
792.0,88.0,40.0
792.0,90.0,45.098038
792.0,92.0,47.64706
792.0,94.0,48.82353
792.0,96.0,49.019608
792.0,98.0,48.62745
792.0,100.0,47.058823
792.0,102.0,44.313725
792.0,104.0,39.411766
792.0,106.0,32.54902
792.0,108.0,24.901958
792.0,110.0,17.647057
792.0,122.0,17.647057
792.0,124.0,24.901958
792.0,126.0,32.941177
792.0,128.0,39.019608
792.0,130.0,44.117645
792.0,132.0,47.45098
792.0,134.0,48.82353
792.0,136.0,49.60784
792.0,138.0,49.60784
792.0,140.0,49.80392
792.0,142.0,49.411766
792.0,144.0,48.431374
792.0,146.0,46.47059
792.0,148.0,43.137253
792.0,150.0,37.2549
792.0,152.0,30.0
792.0,154.0,13.333332
792.0,168.0,18.235292
792.0,170.0,24.509802
792.0,172.0,29.80392
792.0,174.0,33.333332
792.0,176.0,34.313725
792.0,178.0,33.333332
792.0,180.0,30.588236
792.0,182.0,26.078432
792.0,184.0,22.35294
792.0,186.0,17.058823
794.0,82.0,14.901958
794.0,84.0,23.137253
794.0,86.0,32.352943
794.0,88.0,39.411766
794.0,90.0,44.705883
794.0,92.0,47.64706
794.0,94.0,48.62745
794.0,96.0,49.019608
794.0,98.0,48.62745
794.0,100.0,47.2549
794.0,102.0,44.509804
794.0,104.0,39.411766
794.0,106.0,32.941177
794.0,108.0,25.294117
794.0,110.0,17.647057
794.0,122.0,17.647057
794.0,124.0,24.901958
794.0,126.0,32.54902
794.0,128.0,39.019608
794.0,130.0,44.313725
794.0,132.0,47.45098
794.0,134.0,48.82353
794.0,136.0,49.60784
794.0,138.0,49.80392
794.0,140.0,49.80392
794.0,142.0,49.411766
794.0,144.0,48.431374
794.0,146.0,46.27451
794.0,148.0,42.7451
794.0,150.0,36.862743
794.0,152.0,29.80392
794.0,166.0,13.333332
794.0,168.0,18.823528
794.0,170.0,25.686274
794.0,172.0,31.568626
794.0,174.0,35.294117
794.0,176.0,37.45098
794.0,178.0,37.058823
794.0,180.0,35.098038
794.0,182.0,31.568626
794.0,184.0,27.450981
794.0,186.0,22.35294
794.0,188.0,17.647057
794.0,190.0,13.333332
796.0,82.0,14.901958
796.0,84.0,22.745096
796.0,86.0,31.764706
796.0,88.0,39.411766
796.0,90.0,44.313725
796.0,92.0,47.45098
796.0,94.0,48.62745
796.0,96.0,49.019608
796.0,98.0,48.62745
796.0,100.0,47.2549
796.0,102.0,44.509804
796.0,104.0,39.411766
796.0,106.0,32.941177
796.0,108.0,25.294117
796.0,110.0,17.647057
796.0,122.0,17.058823
796.0,124.0,24.509802
796.0,126.0,32.54902
796.0,128.0,38.82353
796.0,130.0,43.92157
796.0,132.0,47.058823
796.0,134.0,48.82353
796.0,136.0,49.411766
796.0,138.0,49.80392
796.0,140.0,49.60784
796.0,142.0,49.411766
796.0,144.0,48.235294
796.0,146.0,46.07843
796.0,148.0,42.35294
796.0,150.0,36.666664
796.0,152.0,29.80392
796.0,166.0,13.333332
796.0,168.0,19.411764
796.0,170.0,26.470589
796.0,172.0,32.54902
796.0,174.0,37.2549
796.0,176.0,39.60784
796.0,178.0,40.588234
796.0,180.0,39.411766
796.0,182.0,36.666664
796.0,184.0,33.52941
796.0,186.0,28.823528
796.0,188.0,24.117645
796.0,190.0,19.80392
796.0,192.0,14.901958
798.0,82.0,14.3137245
798.0,84.0,22.35294
798.0,86.0,31.17647
798.0,88.0,38.62745
798.0,90.0,44.509804
798.0,92.0,47.45098
798.0,94.0,48.82353
798.0,96.0,48.82353
798.0,98.0,48.62745
798.0,100.0,47.2549
798.0,102.0,44.509804
798.0,104.0,39.80392
798.0,106.0,33.137253
798.0,108.0,25.294117
798.0,110.0,17.647057
798.0,122.0,17.058823
798.0,124.0,24.117645
798.0,126.0,32.352943
798.0,128.0,38.62745
798.0,130.0,43.72549
798.0,132.0,47.058823
798.0,134.0,48.82353
798.0,136.0,49.411766
798.0,138.0,49.80392
798.0,140.0,49.80392
798.0,142.0,49.411766
798.0,144.0,48.235294
798.0,146.0,46.27451
798.0,148.0,42.35294
798.0,150.0,36.666664
798.0,152.0,29.411764
798.0,166.0,14.3137245
798.0,168.0,19.80392
798.0,170.0,27.058823
798.0,172.0,33.333332
798.0,174.0,38.62745
798.0,176.0,41.37255
798.0,178.0,42.7451
798.0,180.0,42.54902
798.0,182.0,40.980392
798.0,184.0,38.62745
798.0,186.0,34.509804
798.0,188.0,30.980392
798.0,190.0,26.470589
798.0,192.0,21.764704
798.0,194.0,18.823528
798.0,196.0,16.27451
798.0,198.0,13.333332
800.0,82.0,14.3137245
800.0,84.0,21.372547
800.0,86.0,30.392157
800.0,88.0,38.431374
800.0,90.0,44.117645
800.0,92.0,47.45098
800.0,94.0,48.431374
800.0,96.0,49.215687
800.0,98.0,48.82353
800.0,100.0,47.45098
800.0,102.0,44.509804
800.0,104.0,39.80392
800.0,106.0,33.333332
800.0,108.0,26.470589
800.0,110.0,18.235292
800.0,122.0,17.647057
800.0,124.0,24.117645
800.0,126.0,31.568626
800.0,128.0,38.235294
800.0,130.0,43.52941
800.0,132.0,47.058823
800.0,134.0,48.62745
800.0,136.0,49.411766
800.0,138.0,49.80392
800.0,140.0,49.60784
800.0,142.0,49.411766
800.0,144.0,48.431374
800.0,146.0,46.27451
800.0,148.0,42.7451
800.0,150.0,36.862743
800.0,152.0,29.411764
800.0,166.0,13.333332
800.0,168.0,19.80392
800.0,170.0,27.058823
800.0,172.0,34.117645
800.0,174.0,39.019608
800.0,176.0,42.35294
800.0,178.0,44.509804
800.0,180.0,44.705883
800.0,182.0,44.117645
800.0,184.0,42.54902
800.0,186.0,39.80392
800.0,188.0,35.68627
800.0,190.0,32.941177
800.0,192.0,28.823528
800.0,194.0,26.078432
800.0,196.0,22.745096
800.0,198.0,20.392155
800.0,200.0,17.058823
800.0,202.0,15.686272
800.0,206.0,13.333332
802.0,82.0,13.333332
802.0,84.0,21.372547
802.0,86.0,30.0
802.0,88.0,38.235294
802.0,90.0,43.92157
802.0,92.0,47.058823
802.0,94.0,48.431374
802.0,96.0,49.019608
802.0,98.0,48.62745
802.0,100.0,47.45098
802.0,102.0,44.705883
802.0,104.0,40.0
802.0,106.0,33.52941
802.0,108.0,26.470589
802.0,110.0,18.235292
802.0,122.0,17.058823
802.0,124.0,23.529411
802.0,126.0,31.568626
802.0,128.0,38.235294
802.0,130.0,43.333332
802.0,132.0,46.666668
802.0,134.0,48.62745
802.0,136.0,49.411766
802.0,138.0,49.80392
802.0,140.0,49.80392
802.0,142.0,49.411766
802.0,144.0,48.431374
802.0,146.0,46.47059
802.0,148.0,42.7451
802.0,150.0,37.058823
802.0,152.0,30.0
802.0,154.0,14.901958
802.0,166.0,14.3137245
802.0,168.0,20.392155
802.0,170.0,26.666666
802.0,172.0,33.92157
802.0,174.0,39.411766
802.0,176.0,43.137253
802.0,178.0,45.490196
802.0,180.0,46.27451
802.0,182.0,46.27451
802.0,184.0,45.490196
802.0,186.0,43.92157
802.0,188.0,41.764706
802.0,190.0,39.215687
802.0,192.0,36.47059
802.0,194.0,32.941177
802.0,196.0,30.588236
802.0,198.0,27.843138
802.0,200.0,25.294117
802.0,202.0,23.137253
802.0,204.0,21.372547
802.0,206.0,20.98039
802.0,208.0,19.411764
802.0,210.0,18.235292
802.0,212.0,17.058823
802.0,214.0,16.27451
802.0,216.0,15.686272
802.0,218.0,14.901958
802.0,220.0,13.333332
804.0,84.0,20.392155
804.0,86.0,29.411764
804.0,88.0,37.2549
804.0,90.0,43.52941
804.0,92.0,47.058823
804.0,94.0,48.431374
804.0,96.0,49.019608
804.0,98.0,48.62745
804.0,100.0,47.64706
804.0,102.0,45.098038
804.0,104.0,40.19608
804.0,106.0,34.117645
804.0,108.0,26.666666
804.0,110.0,18.235292
804.0,122.0,16.27451
804.0,124.0,23.137253
804.0,126.0,31.17647
804.0,128.0,38.039215
804.0,130.0,43.137253
804.0,132.0,46.666668
804.0,134.0,48.431374
804.0,136.0,49.411766
804.0,138.0,49.80392
804.0,140.0,49.80392
804.0,142.0,49.411766
804.0,144.0,48.62745
804.0,146.0,46.666668
804.0,148.0,43.137253
804.0,150.0,37.45098
804.0,152.0,30.588236
804.0,154.0,19.411764
804.0,166.0,13.333332
804.0,168.0,18.823528
804.0,170.0,26.470589
804.0,172.0,33.52941
804.0,174.0,39.215687
804.0,176.0,43.52941
804.0,178.0,46.07843
804.0,180.0,47.2549
804.0,182.0,47.64706
804.0,184.0,47.45098
804.0,186.0,46.666668
804.0,188.0,45.294117
804.0,190.0,43.52941
804.0,192.0,41.37255
804.0,194.0,39.411766
804.0,196.0,37.058823
804.0,198.0,34.509804
804.0,200.0,33.137253
804.0,202.0,30.980392
804.0,204.0,29.411764
804.0,206.0,28.431372
804.0,208.0,27.058823
804.0,210.0,26.078432
804.0,212.0,24.901958
804.0,214.0,24.117645
804.0,216.0,23.529411
804.0,218.0,21.764704
804.0,220.0,19.411764
804.0,222.0,17.058823
804.0,224.0,13.333332
806.0,84.0,19.80392
806.0,86.0,28.823528
806.0,88.0,36.862743
806.0,90.0,43.137253
806.0,92.0,46.862743
806.0,94.0,48.235294
806.0,96.0,48.82353
806.0,98.0,48.62745
806.0,100.0,47.64706
806.0,102.0,45.098038
806.0,104.0,40.588234
806.0,106.0,34.313725
806.0,108.0,26.666666
806.0,110.0,19.411764
806.0,122.0,15.686272
806.0,124.0,22.745096
806.0,126.0,30.588236
806.0,128.0,37.45098
806.0,130.0,42.7451
806.0,132.0,46.47059
806.0,134.0,48.431374
806.0,136.0,49.411766
806.0,138.0,49.80392
806.0,140.0,49.80392
806.0,142.0,49.411766
806.0,144.0,48.82353
806.0,146.0,46.862743
806.0,148.0,43.52941
806.0,150.0,38.039215
806.0,152.0,31.17647
806.0,154.0,23.137253
806.0,168.0,19.411764
806.0,170.0,25.294117
806.0,172.0,32.54902
806.0,174.0,38.82353
806.0,176.0,43.137253
806.0,178.0,46.07843
806.0,180.0,47.64706
806.0,182.0,48.431374
806.0,184.0,48.431374
806.0,186.0,48.235294
806.0,188.0,47.45098
806.0,190.0,46.47059
806.0,192.0,45.294117
806.0,194.0,43.92157
806.0,196.0,42.35294
806.0,198.0,40.784313
806.0,200.0,39.411766
806.0,202.0,37.647057
806.0,204.0,36.47059
806.0,206.0,35.294117
806.0,208.0,34.313725
806.0,210.0,33.333332
806.0,212.0,32.54902
806.0,214.0,31.568626
806.0,216.0,30.980392
806.0,218.0,29.411764
806.0,220.0,27.058823
806.0,222.0,23.529411
806.0,224.0,20.392155
808.0,84.0,19.411764
808.0,86.0,28.039215
808.0,88.0,36.862743
808.0,90.0,42.7451
808.0,92.0,46.47059
808.0,94.0,48.235294
808.0,96.0,48.82353
808.0,98.0,48.62745
808.0,100.0,47.843136
808.0,102.0,45.294117
808.0,104.0,40.980392
808.0,106.0,34.901962
808.0,108.0,27.843138
808.0,110.0,19.80392
808.0,122.0,15.686272
808.0,124.0,22.745096
808.0,126.0,30.392157
808.0,128.0,36.862743
808.0,130.0,42.7451
808.0,132.0,46.27451
808.0,134.0,48.235294
808.0,136.0,49.215687
808.0,138.0,49.60784
808.0,140.0,49.80392
808.0,142.0,49.411766
808.0,144.0,48.62745
808.0,146.0,47.2549
808.0,148.0,43.92157
808.0,150.0,39.019608
808.0,152.0,31.764706
808.0,154.0,24.117645
808.0,166.0,13.333332
808.0,168.0,17.647057
808.0,170.0,24.117645
808.0,172.0,31.17647
808.0,174.0,37.647057
808.0,176.0,42.35294
808.0,178.0,45.882355
808.0,180.0,47.843136
808.0,182.0,48.62745
808.0,184.0,49.019608
808.0,186.0,49.019608
808.0,188.0,48.82353
808.0,190.0,48.431374
808.0,192.0,47.64706
808.0,194.0,47.058823
808.0,196.0,46.07843
808.0,198.0,45.294117
808.0,200.0,44.313725
808.0,202.0,43.137253
808.0,204.0,42.15686
808.0,206.0,41.37255
808.0,208.0,40.784313
808.0,210.0,39.80392
808.0,212.0,39.019608
808.0,214.0,38.235294
808.0,216.0,37.45098
808.0,218.0,35.88235
808.0,220.0,33.92157
808.0,222.0,30.588236
808.0,224.0,26.666666
808.0,226.0,19.411764
810.0,84.0,18.823528
810.0,86.0,27.450981
810.0,88.0,35.490196
810.0,90.0,42.35294
810.0,92.0,46.47059
810.0,94.0,48.039215
810.0,96.0,48.82353
810.0,98.0,48.62745
810.0,100.0,47.843136
810.0,102.0,45.490196
810.0,104.0,41.37255
810.0,106.0,35.294117
810.0,108.0,28.039215
810.0,110.0,20.392155
810.0,122.0,14.901958
810.0,124.0,21.764704
810.0,126.0,29.411764
810.0,128.0,36.27451
810.0,130.0,42.15686
810.0,132.0,46.07843
810.0,134.0,48.235294
810.0,136.0,49.215687
810.0,138.0,49.60784
810.0,140.0,49.80392
810.0,142.0,49.60784
810.0,144.0,49.019608
810.0,146.0,47.64706
810.0,148.0,44.705883
810.0,150.0,39.80392
810.0,152.0,33.52941
810.0,154.0,26.078432
810.0,156.0,14.3137245
810.0,168.0,15.686272
810.0,170.0,22.35294
810.0,172.0,29.411764
810.0,174.0,35.88235
810.0,176.0,41.17647
810.0,178.0,45.294117
810.0,180.0,47.64706
810.0,182.0,48.62745
810.0,184.0,49.215687
810.0,186.0,49.411766
810.0,188.0,49.60784
810.0,190.0,49.411766
810.0,192.0,49.215687
810.0,194.0,48.82353
810.0,196.0,48.431374
810.0,198.0,47.843136
810.0,200.0,47.2549
810.0,202.0,46.666668
810.0,204.0,46.07843
810.0,206.0,45.686275
810.0,208.0,45.294117
810.0,210.0,44.705883
810.0,212.0,44.117645
810.0,214.0,43.52941
810.0,216.0,43.137253
810.0,218.0,41.764706
810.0,220.0,39.80392
810.0,222.0,37.058823
810.0,224.0,32.352943
810.0,226.0,28.039215
810.0,228.0,17.058823
812.0,84.0,18.235292
812.0,86.0,26.666666
812.0,88.0,34.901962
812.0,90.0,41.568626
812.0,92.0,46.07843
812.0,94.0,48.039215
812.0,96.0,48.82353
812.0,98.0,48.82353
812.0,100.0,48.039215
812.0,102.0,45.882355
812.0,104.0,41.764706
812.0,106.0,35.88235
812.0,108.0,29.019608
812.0,110.0,20.98039
812.0,122.0,14.3137245
812.0,124.0,21.372547
812.0,126.0,29.019608
812.0,128.0,35.490196
812.0,130.0,41.568626
812.0,132.0,45.686275
812.0,134.0,48.039215
812.0,136.0,49.215687
812.0,138.0,49.60784
812.0,140.0,49.80392
812.0,142.0,49.80392
812.0,144.0,49.215687
812.0,146.0,47.843136
812.0,148.0,45.490196
812.0,150.0,40.784313
812.0,152.0,35.098038
812.0,154.0,27.843138
812.0,156.0,18.823528
812.0,168.0,14.3137245
812.0,170.0,20.392155
812.0,172.0,27.450981
812.0,174.0,34.313725
812.0,176.0,39.80392
812.0,178.0,44.313725
812.0,180.0,47.058823
812.0,182.0,48.431374
812.0,184.0,49.215687
812.0,186.0,49.60784
812.0,188.0,49.60784
812.0,190.0,49.80392
812.0,192.0,49.60784
812.0,194.0,49.411766
812.0,196.0,49.215687
812.0,198.0,49.019608
812.0,200.0,48.82353
812.0,202.0,48.62745
812.0,204.0,48.235294
812.0,206.0,48.039215
812.0,208.0,47.843136
812.0,210.0,47.64706
812.0,212.0,47.2549
812.0,214.0,47.058823
812.0,216.0,46.47059
812.0,218.0,45.490196
812.0,220.0,44.117645
812.0,222.0,41.568626
812.0,224.0,38.62745
812.0,226.0,33.137253
812.0,228.0,26.470589
812.0,230.0,14.901958
814.0,84.0,17.058823
814.0,86.0,25.686274
814.0,88.0,33.92157
814.0,90.0,41.17647
814.0,92.0,45.490196
814.0,94.0,47.843136
814.0,96.0,48.82353
814.0,98.0,48.62745
814.0,100.0,48.039215
814.0,102.0,46.07843
814.0,104.0,42.15686
814.0,106.0,36.47059
814.0,108.0,29.411764
814.0,110.0,21.372547
814.0,112.0,13.333332
814.0,122.0,13.333332
814.0,124.0,20.392155
814.0,126.0,28.039215
814.0,128.0,34.509804
814.0,130.0,40.784313
814.0,132.0,45.294117
814.0,134.0,47.64706
814.0,136.0,49.019608
814.0,138.0,49.60784
814.0,140.0,49.80392
814.0,142.0,49.80392
814.0,144.0,49.411766
814.0,146.0,48.431374
814.0,148.0,46.07843
814.0,150.0,42.15686
814.0,152.0,36.666664
814.0,154.0,29.411764
814.0,156.0,22.745096
814.0,170.0,17.647057
814.0,172.0,24.901958
814.0,174.0,31.568626
814.0,176.0,37.843136
814.0,178.0,42.7451
814.0,180.0,45.882355
814.0,182.0,48.039215
814.0,184.0,49.019608
814.0,186.0,49.60784
814.0,188.0,49.80392
814.0,190.0,50.0
814.0,192.0,49.80392
814.0,194.0,49.80392
814.0,196.0,49.80392
814.0,198.0,49.80392
814.0,200.0,49.60784
814.0,202.0,49.411766
814.0,204.0,49.411766
814.0,206.0,49.215687
814.0,208.0,49.215687
814.0,210.0,49.019608
814.0,212.0,48.82353
814.0,214.0,48.62745
814.0,216.0,48.431374
814.0,218.0,48.039215
814.0,220.0,47.058823
814.0,222.0,45.098038
814.0,224.0,42.15686
814.0,226.0,37.647057
814.0,228.0,30.980392
814.0,230.0,23.529411
814.0,232.0,13.333332
816.0,84.0,16.27451
816.0,86.0,25.294117
816.0,88.0,33.333332
816.0,90.0,40.784313
816.0,92.0,45.294117
816.0,94.0,47.843136
816.0,96.0,48.82353
816.0,98.0,48.82353
816.0,100.0,48.039215
816.0,102.0,46.07843
816.0,104.0,42.7451
816.0,106.0,37.45098
816.0,108.0,30.588236
816.0,110.0,22.745096
816.0,112.0,14.901958
816.0,124.0,19.411764
816.0,126.0,26.666666
816.0,128.0,33.92157
816.0,130.0,40.0
816.0,132.0,44.705883
816.0,134.0,47.45098
816.0,136.0,48.82353
816.0,138.0,49.60784
816.0,140.0,49.80392
816.0,142.0,49.60784
816.0,144.0,49.411766
816.0,146.0,48.62745
816.0,148.0,46.666668
816.0,150.0,43.137253
816.0,152.0,37.843136
816.0,154.0,30.980392
816.0,156.0,23.529411
816.0,158.0,14.901958
816.0,170.0,16.27451
816.0,172.0,22.745096
816.0,174.0,29.019608
816.0,176.0,35.490196
816.0,178.0,40.784313
816.0,180.0,44.705883
816.0,182.0,47.058823
816.0,184.0,48.431374
816.0,186.0,49.411766
816.0,188.0,49.80392
816.0,190.0,50.0
816.0,192.0,50.0
816.0,194.0,50.0
816.0,196.0,50.0
816.0,198.0,50.0
816.0,200.0,50.0
816.0,202.0,50.0
816.0,204.0,49.80392
816.0,206.0,49.80392
816.0,208.0,49.80392
816.0,210.0,49.80392
816.0,212.0,49.80392
816.0,214.0,49.60784
816.0,216.0,49.411766
816.0,218.0,49.215687
816.0,220.0,48.62745
816.0,222.0,47.45098
816.0,224.0,45.098038
816.0,226.0,41.17647
816.0,228.0,35.294117
816.0,230.0,27.843138
816.0,232.0,20.392155
818.0,84.0,14.901958
818.0,86.0,23.529411
818.0,88.0,31.960783
818.0,90.0,39.80392
818.0,92.0,44.705883
818.0,94.0,47.64706
818.0,96.0,48.62745
818.0,98.0,48.82353
818.0,100.0,48.431374
818.0,102.0,46.47059
818.0,104.0,43.333332
818.0,106.0,38.235294
818.0,108.0,31.764706
818.0,110.0,24.117645
818.0,112.0,16.27451
818.0,124.0,18.823528
818.0,126.0,25.686274
818.0,128.0,32.941177
818.0,130.0,39.411766
818.0,132.0,44.117645
818.0,134.0,47.2549
818.0,136.0,48.62745
818.0,138.0,49.60784
818.0,140.0,49.80392
818.0,142.0,49.80392
818.0,144.0,49.60784
818.0,146.0,48.82353
818.0,148.0,47.45098
818.0,150.0,44.509804
818.0,152.0,39.80392
818.0,154.0,33.52941
818.0,156.0,26.470589
818.0,158.0,18.823528
818.0,170.0,13.333332
818.0,172.0,18.823528
818.0,174.0,25.686274
818.0,176.0,31.764706
818.0,178.0,37.843136
818.0,180.0,42.35294
818.0,182.0,45.882355
818.0,184.0,47.64706
818.0,186.0,48.82353
818.0,188.0,49.60784
818.0,190.0,49.80392
818.0,192.0,50.0
818.0,194.0,50.0
818.0,196.0,50.0
818.0,198.0,50.0
818.0,200.0,50.0
818.0,202.0,50.0
818.0,204.0,50.0
818.0,206.0,50.0
818.0,208.0,50.0
818.0,210.0,50.0
818.0,212.0,50.0
818.0,214.0,50.0
818.0,216.0,49.80392
818.0,218.0,49.60784
818.0,220.0,49.411766
818.0,222.0,48.431374
818.0,224.0,47.058823
818.0,226.0,43.92157
818.0,228.0,38.62745
818.0,230.0,31.764706
818.0,232.0,23.137253
818.0,234.0,14.901958
820.0,84.0,14.3137245
820.0,86.0,22.745096
820.0,88.0,31.17647
820.0,90.0,39.215687
820.0,92.0,44.313725
820.0,94.0,47.45098
820.0,96.0,48.431374
820.0,98.0,48.82353
820.0,100.0,48.431374
820.0,102.0,46.862743
820.0,104.0,43.92157
820.0,106.0,39.019608
820.0,108.0,32.54902
820.0,110.0,24.901958
820.0,112.0,17.647057
820.0,124.0,17.058823
820.0,126.0,24.117645
820.0,128.0,31.17647
820.0,130.0,37.843136
820.0,132.0,42.7451
820.0,134.0,46.47059
820.0,136.0,48.431374
820.0,138.0,49.411766
820.0,140.0,49.80392
820.0,142.0,49.80392
820.0,144.0,49.60784
820.0,146.0,49.215687
820.0,148.0,48.235294
820.0,150.0,45.686275
820.0,152.0,41.568626
820.0,154.0,35.88235
820.0,156.0,28.823528
820.0,158.0,22.35294
820.0,172.0,16.27451
820.0,174.0,22.35294
820.0,176.0,28.039215
820.0,178.0,34.509804
820.0,180.0,39.411766
820.0,182.0,43.52941
820.0,184.0,46.07843
820.0,186.0,48.039215
820.0,188.0,49.215687
820.0,190.0,49.60784
820.0,192.0,50.0
820.0,194.0,50.0
820.0,196.0,50.0
820.0,198.0,50.0
820.0,200.0,50.0
820.0,202.0,50.0
820.0,204.0,50.0
820.0,206.0,50.0
820.0,208.0,50.0
820.0,210.0,50.0
820.0,212.0,50.0
820.0,214.0,50.0
820.0,216.0,50.0
820.0,218.0,50.0
820.0,220.0,49.80392
820.0,222.0,49.215687
820.0,224.0,48.235294
820.0,226.0,45.490196
820.0,228.0,41.17647
820.0,230.0,34.313725
820.0,232.0,26.078432
820.0,234.0,17.647057
822.0,84.0,13.333332
822.0,86.0,21.372547
822.0,88.0,29.80392
822.0,90.0,37.843136
822.0,92.0,43.52941
822.0,94.0,47.058823
822.0,96.0,48.431374
822.0,98.0,48.82353
822.0,100.0,48.431374
822.0,102.0,47.2549
822.0,104.0,44.509804
822.0,106.0,40.0
822.0,108.0,33.92157
822.0,110.0,26.470589
822.0,112.0,18.823528
822.0,124.0,15.686272
822.0,126.0,22.35294
822.0,128.0,30.0
822.0,130.0,36.862743
822.0,132.0,42.15686
822.0,134.0,45.882355
822.0,136.0,48.039215
822.0,138.0,49.215687
822.0,140.0,49.80392
822.0,142.0,49.80392
822.0,144.0,49.80392
822.0,146.0,49.411766
822.0,148.0,48.62745
822.0,150.0,46.666668
822.0,152.0,43.333332
822.0,154.0,38.235294
822.0,156.0,31.960783
822.0,158.0,25.294117
822.0,160.0,18.235292
822.0,174.0,18.235292
822.0,176.0,24.117645
822.0,178.0,30.588236
822.0,180.0,36.27451
822.0,182.0,40.784313
822.0,184.0,43.92157
822.0,186.0,46.666668
822.0,188.0,48.235294
822.0,190.0,49.215687
822.0,192.0,49.60784
822.0,194.0,49.80392
822.0,196.0,50.0
822.0,198.0,50.0
822.0,200.0,50.0
822.0,202.0,50.0
822.0,204.0,50.0
822.0,206.0,50.0
822.0,208.0,50.0
822.0,210.0,50.0
822.0,212.0,50.0
822.0,214.0,50.0
822.0,216.0,50.0
822.0,218.0,50.0
822.0,220.0,49.80392
822.0,222.0,49.60784
822.0,224.0,48.82353
822.0,226.0,46.47059
822.0,228.0,42.7451
822.0,230.0,36.862743
822.0,232.0,28.823528
822.0,234.0,19.80392
824.0,86.0,19.411764
824.0,88.0,28.431372
824.0,90.0,37.058823
824.0,92.0,42.941177
824.0,94.0,46.666668
824.0,96.0,48.431374
824.0,98.0,48.82353
824.0,100.0,48.82353
824.0,102.0,47.64706
824.0,104.0,45.294117
824.0,106.0,40.980392
824.0,108.0,35.098038
824.0,110.0,28.039215
824.0,112.0,19.80392
824.0,124.0,14.3137245
824.0,126.0,20.98039
824.0,128.0,28.039215
824.0,130.0,35.098038
824.0,132.0,40.784313
824.0,134.0,45.098038
824.0,136.0,47.45098
824.0,138.0,49.019608
824.0,140.0,49.60784
824.0,142.0,49.80392
824.0,144.0,49.80392
824.0,146.0,49.60784
824.0,148.0,49.019608
824.0,150.0,47.45098
824.0,152.0,44.901962
824.0,154.0,40.588234
824.0,156.0,34.509804
824.0,158.0,28.431372
824.0,160.0,21.372547
824.0,162.0,14.901958
824.0,174.0,15.686272
824.0,176.0,20.392155
824.0,178.0,26.078432
824.0,180.0,31.960783
824.0,182.0,37.45098
824.0,184.0,41.764706
824.0,186.0,44.705883
824.0,188.0,47.058823
824.0,190.0,48.431374
824.0,192.0,49.215687
824.0,194.0,49.60784
824.0,196.0,49.80392
824.0,198.0,50.0
824.0,200.0,50.0
824.0,202.0,50.0
824.0,204.0,50.0
824.0,206.0,50.0
824.0,208.0,50.0
824.0,210.0,50.0
824.0,212.0,50.0
824.0,214.0,50.0
824.0,216.0,50.0
824.0,218.0,50.0
824.0,220.0,50.0
824.0,222.0,49.80392
824.0,224.0,49.019608
824.0,226.0,47.45098
824.0,228.0,43.92157
824.0,230.0,38.039215
824.0,232.0,30.392157
824.0,234.0,21.372547
824.0,236.0,13.333332
826.0,86.0,18.823528
826.0,88.0,27.058823
826.0,90.0,35.88235
826.0,92.0,42.15686
826.0,94.0,46.47059
826.0,96.0,48.235294
826.0,98.0,48.82353
826.0,100.0,48.82353
826.0,102.0,48.039215
826.0,104.0,45.882355
826.0,106.0,42.15686
826.0,108.0,36.47059
826.0,110.0,29.411764
826.0,112.0,21.764704
826.0,114.0,14.901958
826.0,124.0,13.333332
826.0,126.0,19.411764
826.0,128.0,26.078432
826.0,130.0,33.137253
826.0,132.0,39.215687
826.0,134.0,43.92157
826.0,136.0,46.862743
826.0,138.0,48.82353
826.0,140.0,49.411766
826.0,142.0,49.80392
826.0,144.0,49.80392
826.0,146.0,49.60784
826.0,148.0,49.215687
826.0,150.0,48.235294
826.0,152.0,46.47059
826.0,154.0,42.7451
826.0,156.0,37.647057
826.0,158.0,31.568626
826.0,160.0,24.509802
826.0,162.0,17.058823
826.0,176.0,16.27451
826.0,178.0,21.764704
826.0,180.0,27.843138
826.0,182.0,33.137253
826.0,184.0,37.843136
826.0,186.0,41.764706
826.0,188.0,45.098038
826.0,190.0,47.058823
826.0,192.0,48.235294
826.0,194.0,49.019608
826.0,196.0,49.60784
826.0,198.0,49.80392
826.0,200.0,50.0
826.0,202.0,50.0
826.0,204.0,50.0
826.0,206.0,50.0
826.0,208.0,50.0
826.0,210.0,50.0
826.0,212.0,50.0
826.0,214.0,50.0
826.0,216.0,50.0
826.0,218.0,50.0
826.0,220.0,50.0
826.0,222.0,49.80392
826.0,224.0,49.215687
826.0,226.0,48.039215
826.0,228.0,44.509804
826.0,230.0,39.215687
826.0,232.0,31.568626
826.0,234.0,22.35294
826.0,236.0,14.3137245
828.0,86.0,17.058823
828.0,88.0,25.686274
828.0,90.0,34.509804
828.0,92.0,41.37255
828.0,94.0,45.686275
828.0,96.0,48.039215
828.0,98.0,48.82353
828.0,100.0,48.82353
828.0,102.0,48.235294
828.0,104.0,46.666668
828.0,106.0,43.137253
828.0,108.0,37.647057
828.0,110.0,31.17647
828.0,112.0,23.529411
828.0,114.0,17.058823
828.0,126.0,17.058823
828.0,128.0,23.137253
828.0,130.0,30.980392
828.0,132.0,37.2549
828.0,134.0,42.54902
828.0,136.0,45.882355
828.0,138.0,48.235294
828.0,140.0,49.215687
828.0,142.0,49.80392
828.0,144.0,49.80392
828.0,146.0,49.80392
828.0,148.0,49.60784
828.0,150.0,48.82353
828.0,152.0,47.45098
828.0,154.0,44.705883
828.0,156.0,40.588234
828.0,158.0,35.098038
828.0,160.0,28.039215
828.0,162.0,21.372547
828.0,164.0,15.686272
828.0,178.0,17.058823
828.0,180.0,22.745096
828.0,182.0,28.039215
828.0,184.0,33.333332
828.0,186.0,37.843136
828.0,188.0,41.568626
828.0,190.0,44.705883
828.0,192.0,46.666668
828.0,194.0,47.843136
828.0,196.0,48.82353
828.0,198.0,49.411766
828.0,200.0,49.80392
828.0,202.0,50.0
828.0,204.0,50.0
828.0,206.0,50.0
828.0,208.0,50.0
828.0,210.0,50.0
828.0,212.0,50.0
828.0,214.0,50.0
828.0,216.0,50.0
828.0,218.0,50.0
828.0,220.0,50.0
828.0,222.0,49.80392
828.0,224.0,49.411766
828.0,226.0,48.039215
828.0,228.0,45.098038
828.0,230.0,39.80392
828.0,232.0,32.54902
828.0,234.0,23.529411
828.0,236.0,14.901958
830.0,86.0,15.686272
830.0,88.0,24.117645
830.0,90.0,32.941177
830.0,92.0,40.19608
830.0,94.0,45.098038
830.0,96.0,47.64706
830.0,98.0,48.82353
830.0,100.0,49.019608
830.0,102.0,48.431374
830.0,104.0,47.2549
830.0,106.0,44.313725
830.0,108.0,39.411766
830.0,110.0,33.333332
830.0,112.0,25.686274
830.0,114.0,18.235292
830.0,126.0,14.3137245
830.0,128.0,21.372547
830.0,130.0,28.823528
830.0,132.0,35.294117
830.0,134.0,40.980392
830.0,136.0,44.901962
830.0,138.0,47.64706
830.0,140.0,49.019608
830.0,142.0,49.60784
830.0,144.0,49.80392
830.0,146.0,49.80392
830.0,148.0,49.80392
830.0,150.0,49.411766
830.0,152.0,48.235294
830.0,154.0,46.27451
830.0,156.0,42.7451
830.0,158.0,38.235294
830.0,160.0,32.54902
830.0,162.0,26.078432
830.0,164.0,19.411764
830.0,166.0,13.333332
830.0,178.0,14.3137245
830.0,180.0,18.823528
830.0,182.0,23.137253
830.0,184.0,28.039215
830.0,186.0,33.333332
830.0,188.0,37.647057
830.0,190.0,41.568626
830.0,192.0,43.92157
830.0,194.0,46.07843
830.0,196.0,47.64706
830.0,198.0,48.62745
830.0,200.0,49.215687
830.0,202.0,49.60784
830.0,204.0,49.80392
830.0,206.0,50.0
830.0,208.0,50.0
830.0,210.0,50.0
830.0,212.0,50.0
830.0,214.0,50.0
830.0,216.0,50.0
830.0,218.0,50.0
830.0,220.0,50.0
830.0,222.0,49.80392
830.0,224.0,49.411766
830.0,226.0,48.039215
830.0,228.0,45.294117
830.0,230.0,40.39216
830.0,232.0,33.137253
830.0,234.0,24.509802
830.0,236.0,15.686272
832.0,86.0,14.3137245
832.0,88.0,22.35294
832.0,90.0,31.568626
832.0,92.0,38.82353
832.0,94.0,44.313725
832.0,96.0,47.45098
832.0,98.0,48.82353
832.0,100.0,49.019608
832.0,102.0,48.62745
832.0,104.0,47.45098
832.0,106.0,45.098038
832.0,108.0,40.980392
832.0,110.0,34.901962
832.0,112.0,28.431372
832.0,114.0,19.80392
832.0,126.0,13.333332
832.0,128.0,20.392155
832.0,130.0,26.078432
832.0,132.0,33.137253
832.0,134.0,39.019608
832.0,136.0,43.72549
832.0,138.0,47.058823
832.0,140.0,48.62745
832.0,142.0,49.411766
832.0,144.0,49.80392
832.0,146.0,49.80392
832.0,148.0,49.80392
832.0,150.0,49.60784
832.0,152.0,48.82353
832.0,154.0,47.45098
832.0,156.0,45.098038
832.0,158.0,40.980392
832.0,160.0,36.47059
832.0,162.0,29.80392
832.0,164.0,23.529411
832.0,166.0,17.647057
832.0,182.0,18.235292
832.0,184.0,22.745096
832.0,186.0,27.843138
832.0,188.0,32.54902
832.0,190.0,37.058823
832.0,192.0,40.588234
832.0,194.0,43.52941
832.0,196.0,45.686275
832.0,198.0,47.2549
832.0,200.0,48.235294
832.0,202.0,49.019608
832.0,204.0,49.411766
832.0,206.0,49.80392
832.0,208.0,49.80392
832.0,210.0,50.0
832.0,212.0,50.0
832.0,214.0,50.0
832.0,216.0,50.0
832.0,218.0,50.0
832.0,220.0,50.0
832.0,222.0,49.80392
832.0,224.0,49.215687
832.0,226.0,48.235294
832.0,228.0,45.490196
832.0,230.0,40.19608
832.0,232.0,33.333332
832.0,234.0,24.509802
832.0,236.0,15.686272
834.0,86.0,13.333332
834.0,88.0,20.98039
834.0,90.0,29.80392
834.0,92.0,37.647057
834.0,94.0,43.52941
834.0,96.0,46.862743
834.0,98.0,48.62745
834.0,100.0,49.019608
834.0,102.0,49.019608
834.0,104.0,48.039215
834.0,106.0,46.07843
834.0,108.0,42.54902
834.0,110.0,36.862743
834.0,112.0,30.392157
834.0,114.0,23.137253
834.0,116.0,15.686272
834.0,128.0,16.27451
834.0,130.0,23.137253
834.0,132.0,30.392157
834.0,134.0,36.666664
834.0,136.0,41.960785
834.0,138.0,45.686275
834.0,140.0,48.039215
834.0,142.0,49.019608
834.0,144.0,49.60784
834.0,146.0,49.80392
834.0,148.0,49.80392
834.0,150.0,49.80392
834.0,152.0,49.411766
834.0,154.0,48.235294
834.0,156.0,46.666668
834.0,158.0,43.72549
834.0,160.0,39.60784
834.0,162.0,34.117645
834.0,164.0,28.039215
834.0,166.0,21.764704
834.0,168.0,15.686272
834.0,182.0,13.333332
834.0,184.0,17.058823
834.0,186.0,22.35294
834.0,188.0,26.666666
834.0,190.0,31.17647
834.0,192.0,35.490196
834.0,194.0,39.411766
834.0,196.0,42.35294
834.0,198.0,44.705883
834.0,200.0,46.47059
834.0,202.0,47.843136
834.0,204.0,48.62745
834.0,206.0,49.215687
834.0,208.0,49.60784
834.0,210.0,49.80392
834.0,212.0,50.0
834.0,214.0,50.0
834.0,216.0,50.0
834.0,218.0,50.0
834.0,220.0,50.0
834.0,222.0,49.80392
834.0,224.0,49.215687
834.0,226.0,48.039215
834.0,228.0,45.098038
834.0,230.0,39.80392
834.0,232.0,32.941177
834.0,234.0,24.509802
834.0,236.0,16.27451
836.0,88.0,19.411764
836.0,90.0,27.843138
836.0,92.0,36.47059
836.0,94.0,42.7451
836.0,96.0,46.07843
836.0,98.0,48.235294
836.0,100.0,49.019608
836.0,102.0,49.215687
836.0,104.0,48.431374
836.0,106.0,46.862743
836.0,108.0,43.72549
836.0,110.0,38.82353
836.0,112.0,32.54902
836.0,114.0,25.294117
836.0,116.0,18.235292
836.0,128.0,13.333332
836.0,130.0,19.80392
836.0,132.0,27.058823
836.0,134.0,34.117645
836.0,136.0,39.411766
836.0,138.0,44.117645
836.0,140.0,47.058823
836.0,142.0,48.62745
836.0,144.0,49.411766
836.0,146.0,49.80392
836.0,148.0,50.0
836.0,150.0,49.80392
836.0,152.0,49.60784
836.0,154.0,49.019608
836.0,156.0,48.039215
836.0,158.0,45.882355
836.0,160.0,42.941177
836.0,162.0,38.235294
836.0,164.0,32.54902
836.0,166.0,26.666666
836.0,168.0,20.392155
836.0,170.0,14.901958
836.0,186.0,17.058823
836.0,188.0,21.372547
836.0,190.0,25.686274
836.0,192.0,29.80392
836.0,194.0,33.92157
836.0,196.0,37.843136
836.0,198.0,40.980392
836.0,200.0,43.72549
836.0,202.0,45.882355
836.0,204.0,47.2549
836.0,206.0,48.235294
836.0,208.0,48.82353
836.0,210.0,49.215687
836.0,212.0,49.60784
836.0,214.0,49.80392
836.0,216.0,49.80392
836.0,218.0,49.80392
836.0,220.0,49.80392
836.0,222.0,49.411766
836.0,224.0,48.82353
836.0,226.0,47.45098
836.0,228.0,44.313725
836.0,230.0,39.215687
836.0,232.0,32.352943
836.0,234.0,24.509802
836.0,236.0,16.27451
838.0,88.0,17.647057
838.0,90.0,25.686274
838.0,92.0,34.901962
838.0,94.0,41.17647
838.0,96.0,45.490196
838.0,98.0,48.039215
838.0,100.0,49.019608
838.0,102.0,49.215687
838.0,104.0,48.82353
838.0,106.0,47.64706
838.0,108.0,45.098038
838.0,110.0,40.784313
838.0,112.0,35.68627
838.0,114.0,28.039215
838.0,116.0,21.764704
838.0,118.0,14.3137245
838.0,130.0,18.235292
838.0,132.0,24.117645
838.0,134.0,31.17647
838.0,136.0,37.058823
838.0,138.0,42.35294
838.0,140.0,45.882355
838.0,142.0,48.039215
838.0,144.0,49.215687
838.0,146.0,49.80392
838.0,148.0,49.80392
838.0,150.0,50.0
838.0,152.0,49.80392
838.0,154.0,49.411766
838.0,156.0,48.82353
838.0,158.0,47.45098
838.0,160.0,45.098038
838.0,162.0,41.568626
838.0,164.0,37.2549
838.0,166.0,31.764706
838.0,168.0,25.294117
838.0,170.0,20.392155
838.0,172.0,15.686272
838.0,188.0,15.686272
838.0,190.0,18.823528
838.0,192.0,24.117645
838.0,194.0,28.431372
838.0,196.0,32.54902
838.0,198.0,36.27451
838.0,200.0,39.411766
838.0,202.0,42.35294
838.0,204.0,44.509804
838.0,206.0,46.07843
838.0,208.0,47.45098
838.0,210.0,48.235294
838.0,212.0,48.82353
838.0,214.0,49.215687
838.0,216.0,49.60784
838.0,218.0,49.60784
838.0,220.0,49.411766
838.0,222.0,49.019608
