x,y,z
455.0,190.0,2.039215
455.0,195.0,1.1764698
455.0,200.0,0.54901886
455.0,205.0,0.15686226
455.0,210.0,0.07843208
455.0,215.0,0.07843208
455.0,220.0,0.0
455.0,225.0,0.0
455.0,230.0,0.0
455.0,235.0,0.0
455.0,240.0,0.0
455.0,245.0,0.0
455.0,250.0,0.0
455.0,255.0,0.0
455.0,260.0,0.0
455.0,265.0,0.0
455.0,270.0,0.0
455.0,275.0,0.0
455.0,280.0,0.0
455.0,285.0,0.0
455.0,290.0,0.0
455.0,295.0,0.0
460.0,0.0,0.0
460.0,5.0,0.0
460.0,10.0,0.0
460.0,15.0,0.0
460.0,20.0,0.0
460.0,25.0,0.0
460.0,30.0,0.0
460.0,35.0,0.0
460.0,40.0,0.0
460.0,45.0,0.0
460.0,50.0,0.0
460.0,55.0,0.07843208
460.0,60.0,0.0
460.0,65.0,0.07843208
460.0,70.0,1.0196075
460.0,75.0,7.215686
460.0,80.0,15.215687
460.0,85.0,19.215687
460.0,90.0,19.921568
460.0,95.0,19.921568
460.0,100.0,19.921568
460.0,105.0,19.921568
460.0,110.0,19.607843
460.0,115.0,18.352942
460.0,120.0,14.039215
460.0,125.0,6.9019604
460.0,130.0,0.31372452
460.0,135.0,0.07843208
460.0,140.0,0.07843208
460.0,145.0,0.07843208
460.0,150.0,0.23529434
460.0,155.0,1.4901962
460.0,160.0,1.8039207
460.0,165.0,0.07843208
460.0,170.0,0.07843208
460.0,175.0,0.07843208
460.0,180.0,0.07843208
460.0,185.0,0.31372452
460.0,190.0,0.23529434
460.0,195.0,0.07843208
460.0,200.0,0.07843208
460.0,205.0,0.0
460.0,210.0,0.07843208
460.0,215.0,0.0
460.0,220.0,0.0
460.0,225.0,0.0
460.0,230.0,0.0
460.0,235.0,0.0
460.0,240.0,0.0
460.0,245.0,0.0
460.0,250.0,0.0
460.0,255.0,0.0
460.0,260.0,0.0
460.0,265.0,0.0
460.0,270.0,0.0
460.0,275.0,0.0
460.0,280.0,0.0
460.0,285.0,0.0
460.0,290.0,0.0
460.0,295.0,0.0
465.0,0.0,0.0
465.0,5.0,0.0
465.0,10.0,0.0
465.0,15.0,0.0
465.0,20.0,0.0
465.0,25.0,0.0
465.0,30.0,0.0
465.0,35.0,0.0
465.0,40.0,0.0
465.0,45.0,0.0
465.0,50.0,0.0
465.0,55.0,0.07843208
465.0,60.0,0.07843208
465.0,65.0,0.07843208
465.0,70.0,1.2549019
465.0,75.0,7.6862736
465.0,80.0,15.921568
465.0,85.0,19.058823
465.0,90.0,19.921568
465.0,95.0,19.921568
465.0,100.0,19.921568
465.0,105.0,19.921568
465.0,110.0,19.215687
465.0,115.0,16.470589
465.0,120.0,10.117647
465.0,125.0,2.9803925
465.0,130.0,0.07843208
465.0,135.0,0.07843208
465.0,140.0,0.07843208
465.0,145.0,0.15686226
465.0,150.0,1.0196075
465.0,155.0,4.1568623
465.0,160.0,3.294117
465.0,165.0,0.07843208
465.0,170.0,0.07843208
465.0,175.0,0.07843208
465.0,180.0,0.07843208
465.0,185.0,0.07843208
465.0,190.0,0.07843208
465.0,195.0,0.07843208
465.0,200.0,0.07843208
465.0,205.0,0.07843208
465.0,210.0,0.07843208
465.0,215.0,0.07843208
465.0,220.0,0.07843208
465.0,225.0,0.07843208
465.0,230.0,0.0
465.0,235.0,0.0
465.0,240.0,0.0
465.0,245.0,0.0
465.0,250.0,0.0
465.0,255.0,0.0
465.0,260.0,0.0
465.0,265.0,0.0
465.0,270.0,0.0
465.0,275.0,0.0
465.0,280.0,0.0
465.0,285.0,0.0
465.0,290.0,0.0
465.0,295.0,0.0
470.0,0.0,0.0
470.0,5.0,0.0
470.0,10.0,0.0
470.0,15.0,0.0
470.0,20.0,0.0
470.0,25.0,0.0
470.0,30.0,0.0
470.0,35.0,0.0
470.0,40.0,0.0
470.0,45.0,0.0
470.0,50.0,0.0
470.0,55.0,0.07843208
470.0,60.0,0.07843208
470.0,65.0,0.07843208
470.0,70.0,1.4117641
470.0,75.0,8.235293
470.0,80.0,16.235294
470.0,85.0,19.450981
470.0,90.0,19.921568
470.0,95.0,19.921568
470.0,100.0,19.921568
470.0,105.0,19.607843
470.0,110.0,17.882353
470.0,115.0,13.333333
470.0,120.0,5.882353
470.0,125.0,0.15686226
470.0,130.0,0.07843208
470.0,135.0,0.07843208
470.0,140.0,0.07843208
470.0,145.0,0.54901886
470.0,150.0,3.7647057
470.0,155.0,7.843137
470.0,160.0,4.627451
470.0,165.0,0.07843208
470.0,170.0,0.07843208
470.0,175.0,0.07843208
470.0,180.0,0.07843208
470.0,185.0,0.0
470.0,190.0,0.07843208
470.0,195.0,0.07843208
470.0,200.0,0.07843208
470.0,205.0,0.31372452
470.0,210.0,0.705883
470.0,215.0,0.8627453
470.0,220.0,0.3921566
470.0,225.0,0.07843208
470.0,230.0,0.07843208
470.0,235.0,0.0
470.0,240.0,0.0
470.0,245.0,0.0
470.0,250.0,0.0
470.0,255.0,0.0
470.0,260.0,0.0
470.0,265.0,0.0
470.0,270.0,0.0
470.0,275.0,0.0
470.0,280.0,0.0
470.0,285.0,0.0
470.0,290.0,0.0
470.0,295.0,0.0
475.0,0.0,0.0
475.0,5.0,0.0
475.0,10.0,0.0
475.0,15.0,0.0
475.0,20.0,0.0
475.0,25.0,0.0
475.0,30.0,0.0
475.0,35.0,0.0
475.0,40.0,0.0
475.0,45.0,0.0
475.0,50.0,0.0
475.0,55.0,0.07843208
475.0,60.0,0.07843208
475.0,65.0,0.07843208
475.0,70.0,1.4901962
475.0,75.0,8.3137245
475.0,80.0,16.235294
475.0,85.0,19.294117
475.0,90.0,19.921568
475.0,95.0,19.921568
475.0,100.0,19.921568
475.0,105.0,19.058823
475.0,110.0,16.078432
475.0,115.0,9.6470585
475.0,120.0,2.5098038
475.0,125.0,0.07843208
475.0,130.0,0.07843208
475.0,135.0,0.07843208
475.0,140.0,0.23529434
475.0,145.0,2.039215
475.0,150.0,7.7647057
475.0,155.0,10.980392
475.0,160.0,5.490196
475.0,165.0,0.07843208
475.0,170.0,0.07843208
475.0,175.0,0.0
475.0,180.0,0.07843208
475.0,185.0,0.0
475.0,190.0,0.07843208
475.0,195.0,0.15686226
475.0,200.0,1.0196075
475.0,205.0,3.1372547
475.0,210.0,5.254902
475.0,215.0,5.6470585
475.0,220.0,3.1372547
475.0,225.0,0.62745094
475.0,230.0,0.07843208
475.0,235.0,0.0
475.0,240.0,0.0
475.0,245.0,0.0
475.0,250.0,0.0
475.0,255.0,0.0
475.0,260.0,0.0
475.0,265.0,0.0
475.0,270.0,0.0
475.0,275.0,0.0
475.0,280.0,0.0
475.0,285.0,0.0
475.0,290.0,0.0
475.0,295.0,0.0
480.0,0.0,0.0
480.0,5.0,0.0
480.0,10.0,0.0
480.0,15.0,0.0
480.0,20.0,0.0
480.0,25.0,0.0
480.0,30.0,0.0
480.0,35.0,0.0
480.0,40.0,0.0
480.0,45.0,0.0
480.0,50.0,0.0
480.0,55.0,0.07843208
480.0,60.0,0.07843208
480.0,65.0,0.07843208
480.0,70.0,1.5686264
480.0,75.0,8.784313
480.0,80.0,16.392157
480.0,85.0,19.450981
480.0,90.0,19.921568
480.0,95.0,19.921568
480.0,100.0,19.607843
480.0,105.0,18.039215
480.0,110.0,13.6470585
480.0,115.0,5.6470585
480.0,120.0,0.23529434
480.0,125.0,0.07843208
480.0,130.0,0.07843208
480.0,135.0,0.07843208
480.0,140.0,0.7843132
480.0,145.0,4.9411764
480.0,150.0,11.921569
480.0,155.0,12.705882
480.0,160.0,5.7254896
480.0,165.0,0.07843208
480.0,170.0,0.07843208
480.0,175.0,0.07843208
480.0,180.0,0.0
480.0,185.0,0.07843208
480.0,190.0,0.07843208
480.0,195.0,0.7843132
480.0,200.0,4.549019
480.0,205.0,9.882353
480.0,210.0,13.09804
480.0,215.0,13.490196
480.0,220.0,9.6470585
480.0,225.0,3.7647057
480.0,230.0,0.54901886
480.0,235.0,0.07843208
480.0,240.0,0.0
480.0,245.0,0.0
480.0,250.0,0.0
480.0,255.0,0.0
480.0,260.0,0.0
480.0,265.0,0.0
480.0,270.0,0.0
480.0,275.0,0.0
480.0,280.0,0.0
480.0,285.0,0.0
480.0,290.0,0.0
480.0,295.0,0.0
485.0,0.0,0.0
485.0,5.0,0.0
485.0,10.0,0.0
485.0,15.0,0.0
485.0,20.0,0.0
485.0,25.0,0.0
485.0,30.0,0.0
485.0,35.0,0.0
485.0,40.0,0.0
485.0,45.0,0.0
485.0,50.0,0.0
485.0,55.0,0.07843208
485.0,60.0,0.0
485.0,65.0,0.07843208
485.0,70.0,1.6470585
485.0,75.0,8.941175
485.0,80.0,16.235294
485.0,85.0,19.294117
485.0,90.0,19.921568
485.0,95.0,19.921568
485.0,100.0,19.294117
485.0,105.0,16.784313
485.0,110.0,10.3529415
485.0,115.0,2.9803925
485.0,120.0,0.07843208
485.0,125.0,0.07843208
485.0,130.0,0.07843208
485.0,135.0,0.23529434
485.0,140.0,2.5098038
485.0,145.0,9.254902
485.0,150.0,14.980392
485.0,155.0,14.039215
485.0,160.0,5.882353
485.0,165.0,0.07843208
485.0,170.0,0.07843208
485.0,175.0,0.0
485.0,180.0,0.0
485.0,185.0,0.0
485.0,190.0,0.07843208
485.0,195.0,1.4117641
485.0,200.0,6.9803915
485.0,205.0,14.196078
485.0,210.0,16.784313
485.0,215.0,17.882353
485.0,220.0,14.980392
485.0,225.0,9.019608
485.0,230.0,2.4313717
485.0,235.0,0.23529434
485.0,240.0,0.07843208
485.0,245.0,0.0
485.0,250.0,0.0
485.0,255.0,0.0
485.0,260.0,0.0
485.0,265.0,0.0
485.0,270.0,0.0
485.0,275.0,0.0
485.0,280.0,0.0
485.0,285.0,0.0
485.0,290.0,0.0
485.0,295.0,0.0
490.0,0.0,0.0
490.0,5.0,0.0
490.0,10.0,0.0
490.0,15.0,0.0
490.0,20.0,0.0
490.0,25.0,0.0
490.0,30.0,0.0
490.0,35.0,0.0
490.0,40.0,0.0
490.0,45.0,0.0
490.0,50.0,0.0
490.0,55.0,0.07843208
490.0,60.0,0.07843208
490.0,65.0,0.07843208
490.0,70.0,1.8039207
490.0,75.0,9.17647
490.0,80.0,16.392157
490.0,85.0,19.294117
490.0,90.0,19.921568
490.0,95.0,19.764706
490.0,100.0,18.745098
490.0,105.0,14.980392
490.0,110.0,7.294117
490.0,115.0,1.2549019
490.0,120.0,0.07843208
490.0,125.0,0.07843208
490.0,130.0,0.07843208
490.0,135.0,0.7843132
490.0,140.0,5.490196
490.0,145.0,13.17647
490.0,150.0,16.941177
490.0,155.0,14.431372
490.0,160.0,5.960784
490.0,165.0,0.07843208
490.0,170.0,0.07843208
490.0,175.0,0.0
490.0,180.0,0.0
490.0,185.0,0.07843208
490.0,190.0,0.07843208
490.0,195.0,0.94117737
490.0,200.0,5.17647
490.0,205.0,11.372549
490.0,210.0,15.137255
490.0,215.0,16.941177
490.0,220.0,15.921568
490.0,225.0,10.745098
490.0,230.0,3.6078434
490.0,235.0,0.3921566
490.0,240.0,0.07843208
490.0,245.0,0.0
490.0,250.0,0.0
490.0,255.0,0.0
490.0,260.0,0.0
490.0,265.0,0.0
490.0,270.0,0.0
490.0,275.0,0.0
490.0,280.0,0.0
490.0,285.0,0.0
490.0,290.0,0.0
490.0,295.0,0.0
495.0,0.0,0.0
495.0,5.0,0.0
495.0,10.0,0.0
495.0,15.0,0.0
495.0,20.0,0.0
495.0,25.0,0.0
495.0,30.0,0.0
495.0,35.0,0.0
495.0,40.0,0.0
495.0,45.0,0.0
495.0,50.0,0.0
495.0,55.0,0.07843208
495.0,60.0,0.0
495.0,65.0,0.07843208
495.0,70.0,1.8039207
495.0,75.0,9.254902
495.0,80.0,16.470589
495.0,85.0,19.294117
495.0,90.0,19.921568
495.0,95.0,19.764706
495.0,100.0,18.19608
495.0,105.0,12.784313
495.0,110.0,4.705882
495.0,115.0,0.31372452
495.0,120.0,0.07843208
495.0,125.0,0.07843208
495.0,130.0,0.15686226
495.0,135.0,2.039215
495.0,140.0,9.17647
495.0,145.0,16.078432
495.0,150.0,17.882353
495.0,155.0,14.666666
495.0,160.0,6.117647
495.0,165.0,0.07843208
495.0,170.0,0.07843208
495.0,175.0,0.0
495.0,180.0,0.0
495.0,185.0,0.0
495.0,190.0,0.07843208
495.0,195.0,0.23529434
495.0,200.0,1.4901962
495.0,205.0,4.549019
495.0,210.0,8.078431
495.0,215.0,10.588235
495.0,220.0,10.588235
495.0,225.0,6.4313717
495.0,230.0,1.8039207
495.0,235.0,0.15686226
495.0,240.0,0.07843208
495.0,245.0,0.0
495.0,250.0,0.0
495.0,255.0,0.0
495.0,260.0,0.0
495.0,265.0,0.0
495.0,270.0,0.0
495.0,275.0,0.0
495.0,280.0,0.0
495.0,285.0,0.0
495.0,290.0,0.0
495.0,295.0,0.0
500.0,0.0,0.0
500.0,5.0,0.0
500.0,10.0,0.0
500.0,15.0,0.0
500.0,20.0,0.0
500.0,25.0,0.0
500.0,30.0,0.0
500.0,35.0,0.0
500.0,40.0,0.0
500.0,45.0,0.0
500.0,50.0,0.0
500.0,55.0,0.07843208
500.0,60.0,0.07843208
500.0,65.0,0.07843208
500.0,70.0,1.8823528
500.0,75.0,9.254902
500.0,80.0,16.62745
500.0,85.0,19.215687
500.0,90.0,19.921568
500.0,95.0,19.450981
500.0,100.0,17.333334
500.0,105.0,11.137255
500.0,110.0,2.9019604
500.0,115.0,0.07843208
500.0,120.0,0.07843208
500.0,125.0,0.07843208
500.0,130.0,0.3921566
500.0,135.0,4.0
500.0,140.0,12.313725
500.0,145.0,17.882353
500.0,150.0,18.352942
500.0,155.0,14.666666
500.0,160.0,6.2745094
500.0,165.0,0.07843208
500.0,170.0,0.07843208
500.0,175.0,0.07843208
500.0,180.0,0.07843208
500.0,185.0,0.07843208
500.0,190.0,0.07843208
500.0,195.0,0.07843208
500.0,200.0,0.15686226
500.0,205.0,0.62745094
500.0,210.0,1.7254906
500.0,215.0,2.9019604
500.0,220.0,2.9019604
500.0,225.0,1.4117641
500.0,230.0,0.23529434
500.0,235.0,0.07843208
500.0,240.0,0.0
500.0,245.0,0.0
500.0,250.0,0.0
500.0,255.0,0.0
500.0,260.0,0.0
500.0,265.0,0.0
500.0,270.0,0.0
500.0,275.0,0.0
500.0,280.0,0.0
500.0,285.0,0.0
500.0,290.0,0.0
500.0,295.0,0.0
505.0,0.0,0.0
505.0,5.0,0.0
505.0,10.0,0.0
505.0,15.0,0.0
505.0,20.0,0.0
505.0,25.0,0.0
505.0,30.0,0.0
505.0,35.0,0.0
505.0,40.0,0.0
505.0,45.0,0.0
505.0,50.0,0.0
505.0,55.0,0.07843208
505.0,60.0,0.07843208
505.0,65.0,0.07843208
505.0,70.0,1.8823528
505.0,75.0,9.411764
505.0,80.0,16.62745
505.0,85.0,19.450981
505.0,90.0,19.921568
505.0,95.0,19.294117
505.0,100.0,16.62745
505.0,105.0,9.72549
505.0,110.0,2.1176472
505.0,115.0,0.07843208
505.0,120.0,0.07843208
505.0,125.0,0.07843208
505.0,130.0,0.8627453
505.0,135.0,6.039215
505.0,140.0,14.274509
505.0,145.0,18.509804
505.0,150.0,18.588236
505.0,155.0,14.823529
505.0,160.0,6.3529406
505.0,165.0,0.07843208
505.0,170.0,0.07843208
505.0,175.0,0.07843208
505.0,180.0,0.07843208
505.0,185.0,0.07843208
505.0,190.0,0.07843208
505.0,195.0,0.0
505.0,200.0,0.07843208
505.0,205.0,0.07843208
505.0,210.0,0.15686226
505.0,215.0,0.23529434
505.0,220.0,0.23529434
505.0,225.0,0.07843208
505.0,230.0,0.07843208
505.0,235.0,0.0
505.0,240.0,0.0
505.0,245.0,0.0
505.0,250.0,0.0
505.0,255.0,0.0
505.0,260.0,0.0
505.0,265.0,0.0
505.0,270.0,0.0
505.0,275.0,0.0
505.0,280.0,0.0
505.0,285.0,0.0
505.0,290.0,0.0
505.0,295.0,0.0
510.0,0.0,0.0
510.0,5.0,0.0
510.0,10.0,0.0
510.0,15.0,0.0
510.0,20.0,0.0
510.0,25.0,0.0
510.0,30.0,0.0
510.0,35.0,0.0
510.0,40.0,0.0
510.0,45.0,0.0
510.0,50.0,0.07843208
510.0,55.0,0.07843208
510.0,60.0,0.07843208
510.0,65.0,0.07843208
510.0,70.0,1.8823528
510.0,75.0,9.17647
510.0,80.0,16.62745
510.0,85.0,19.294117
510.0,90.0,19.921568
510.0,95.0,19.294117
510.0,100.0,15.921568
510.0,105.0,8.470588
510.0,110.0,1.4901962
510.0,115.0,0.07843208
510.0,120.0,0.07843208
510.0,125.0,0.07843208
510.0,130.0,1.2549019
510.0,135.0,7.7647057
510.0,140.0,15.686275
510.0,145.0,19.058823
510.0,150.0,18.588236
510.0,155.0,14.588235
510.0,160.0,6.4313717
510.0,165.0,0.07843208
510.0,170.0,0.07843208
510.0,175.0,0.07843208
510.0,180.0,0.07843208
510.0,185.0,0.23529434
510.0,190.0,0.15686226
510.0,195.0,0.07843208
510.0,200.0,0.07843208
510.0,205.0,0.0
510.0,210.0,0.07843208
510.0,215.0,0.07843208
510.0,220.0,0.07843208
510.0,225.0,0.07843208
510.0,230.0,0.0
510.0,235.0,0.0
510.0,240.0,0.0
510.0,245.0,0.0
510.0,250.0,0.0
510.0,255.0,0.0
510.0,260.0,0.0
510.0,265.0,0.0
510.0,270.0,0.0
510.0,275.0,0.0
510.0,280.0,0.0
510.0,285.0,0.0
510.0,290.0,0.0
510.0,295.0,0.0
515.0,0.0,0.0
515.0,5.0,0.0
515.0,10.0,0.0
515.0,15.0,0.0
515.0,20.0,0.0
515.0,25.0,0.0
515.0,30.0,0.0
515.0,35.0,0.0
515.0,40.0,0.0
515.0,45.0,0.0
515.0,50.0,0.0
515.0,55.0,0.07843208
515.0,60.0,0.07843208
515.0,65.0,0.07843208
515.0,70.0,1.8039207
515.0,75.0,9.019608
515.0,80.0,16.470589
515.0,85.0,19.450981
515.0,90.0,19.921568
515.0,95.0,19.058823
515.0,100.0,15.372549
515.0,105.0,7.5294113
515.0,110.0,1.1764698
515.0,115.0,0.07843208
515.0,120.0,0.07843208
515.0,125.0,0.07843208
515.0,130.0,1.8039207
515.0,135.0,9.019608
515.0,140.0,16.470589
515.0,145.0,19.215687
515.0,150.0,18.745098
515.0,155.0,14.588235
515.0,160.0,6.3529406
515.0,165.0,0.07843208
515.0,170.0,0.07843208
515.0,175.0,0.07843208
515.0,180.0,0.07843208
515.0,185.0,0.7843132
515.0,190.0,1.333334
515.0,195.0,0.7843132
515.0,200.0,0.23529434
515.0,205.0,0.07843208
515.0,210.0,0.07843208
515.0,215.0,0.07843208
515.0,220.0,0.0
515.0,225.0,0.0
515.0,230.0,0.0
515.0,235.0,0.0
515.0,240.0,0.0
515.0,245.0,0.0
515.0,250.0,0.0
515.0,255.0,0.0
515.0,260.0,0.0
515.0,265.0,0.0
515.0,270.0,0.0
515.0,275.0,0.0
515.0,280.0,0.0
515.0,285.0,0.0
515.0,290.0,0.0
515.0,295.0,0.0
520.0,0.0,0.0
520.0,5.0,0.0
520.0,10.0,0.0
520.0,15.0,0.0
520.0,20.0,0.0
520.0,25.0,0.0
520.0,30.0,0.0
520.0,35.0,0.0
520.0,40.0,0.0
520.0,45.0,0.0
520.0,50.0,0.0
520.0,55.0,0.07843208
520.0,60.0,0.07843208
520.0,65.0,0.07843208
520.0,70.0,1.5686264
520.0,75.0,9.019608
520.0,80.0,16.235294
520.0,85.0,19.294117
520.0,90.0,19.921568
520.0,95.0,19.058823
520.0,100.0,15.215687
520.0,105.0,6.9803915
520.0,110.0,0.94117737
520.0,115.0,0.07843208
520.0,120.0,0.07843208
520.0,125.0,0.15686226
520.0,130.0,2.1176472
520.0,135.0,9.6470585
520.0,140.0,16.62745
520.0,145.0,19.294117
520.0,150.0,18.509804
520.0,155.0,14.196078
520.0,160.0,5.490196
520.0,165.0,0.07843208
520.0,170.0,0.07843208
520.0,175.0,0.07843208
520.0,180.0,0.07843208
520.0,185.0,1.333334
520.0,190.0,3.8431377
520.0,195.0,3.8431377
520.0,200.0,2.039215
520.0,205.0,0.705883
520.0,210.0,0.15686226
520.0,215.0,0.07843208
520.0,220.0,0.07843208
520.0,225.0,0.0
520.0,230.0,0.0
520.0,235.0,0.0
520.0,240.0,0.0
520.0,245.0,0.0
520.0,250.0,0.0
520.0,255.0,0.0
520.0,260.0,0.0
520.0,265.0,0.0
520.0,270.0,0.0
520.0,275.0,0.0
520.0,280.0,0.0
520.0,285.0,0.0
520.0,290.0,0.0
520.0,295.0,0.0
525.0,0.0,0.0
525.0,5.0,0.0
525.0,10.0,0.0
525.0,15.0,0.0
525.0,20.0,0.0
525.0,25.0,0.0
525.0,30.0,0.0
525.0,35.0,0.0
525.0,40.0,0.0
525.0,45.0,0.0
525.0,50.0,0.0
525.0,55.0,0.07843208
525.0,60.0,0.07843208
525.0,65.0,0.07843208
525.0,70.0,1.4901962
525.0,75.0,8.549019
525.0,80.0,16.078432
525.0,85.0,19.215687
525.0,90.0,19.921568
525.0,95.0,18.90196
525.0,100.0,14.823529
525.0,105.0,6.666666
525.0,110.0,0.8627453
525.0,115.0,0.07843208
525.0,120.0,0.07843208
525.0,125.0,0.15686226
525.0,130.0,2.2745094
525.0,135.0,10.117647
525.0,140.0,16.941177
525.0,145.0,18.90196
525.0,150.0,17.333334
525.0,155.0,12.0
525.0,160.0,3.8431377
525.0,165.0,0.07843208
525.0,170.0,0.07843208
525.0,175.0,0.07843208
525.0,180.0,0.07843208
525.0,185.0,0.8627453
525.0,190.0,3.294117
525.0,195.0,4.0
525.0,200.0,2.5098038
525.0,205.0,1.0196075
525.0,210.0,0.31372452
525.0,215.0,0.07843208
525.0,220.0,0.07843208
525.0,225.0,0.0
525.0,230.0,0.0
525.0,235.0,0.0
525.0,240.0,0.0
525.0,245.0,0.0
525.0,250.0,0.0
525.0,255.0,0.0
525.0,260.0,0.0
525.0,265.0,0.0
525.0,270.0,0.0
525.0,275.0,0.0
525.0,280.0,0.0
525.0,285.0,0.0
525.0,290.0,0.0
525.0,295.0,0.0
530.0,0.0,0.0
530.0,5.0,0.0
530.0,10.0,0.0
530.0,15.0,0.0
530.0,20.0,0.0
530.0,25.0,0.0
530.0,30.0,0.0
530.0,35.0,0.0
530.0,40.0,0.0
530.0,45.0,0.0
530.0,50.0,0.0
530.0,55.0,0.0
530.0,60.0,0.07843208
530.0,65.0,0.07843208
530.0,70.0,1.333334
530.0,75.0,8.0
530.0,80.0,15.843138
530.0,85.0,19.215687
530.0,90.0,19.921568
530.0,95.0,18.90196
530.0,100.0,15.372549
530.0,105.0,6.4313717
530.0,110.0,0.8627453
530.0,115.0,0.07843208
530.0,120.0,0.07843208
530.0,125.0,0.15686226
530.0,130.0,2.4313717
530.0,135.0,10.117647
530.0,140.0,16.392157
530.0,145.0,16.784313
530.0,150.0,12.941176
530.0,155.0,6.4313717
530.0,160.0,1.2549019
530.0,165.0,0.07843208
530.0,170.0,0.07843208
530.0,175.0,0.0
530.0,180.0,0.07843208
530.0,185.0,0.15686226
530.0,190.0,0.705883
530.0,195.0,0.7843132
530.0,200.0,0.47058868
530.0,205.0,0.07843208
530.0,210.0,0.07843208
530.0,215.0,0.07843208
530.0,220.0,0.0
530.0,225.0,0.0
530.0,230.0,0.0
530.0,235.0,0.0
530.0,240.0,0.0
530.0,245.0,0.0
530.0,250.0,0.0
530.0,255.0,0.0
530.0,260.0,0.0
530.0,265.0,0.0
530.0,270.0,0.0
530.0,275.0,0.0
530.0,280.0,0.0
530.0,285.0,0.0
530.0,290.0,0.0
530.0,295.0,0.0
535.0,0.0,0.0
535.0,5.0,0.0
535.0,10.0,0.0
535.0,15.0,0.0
535.0,20.0,0.0
535.0,25.0,0.0
535.0,30.0,0.0
535.0,35.0,0.0
535.0,40.0,0.0
535.0,45.0,0.0
535.0,50.0,0.0
535.0,55.0,0.0
535.0,60.0,0.07843208
535.0,65.0,0.07843208
535.0,70.0,1.0980396
535.0,75.0,7.294117
535.0,80.0,15.372549
535.0,85.0,19.058823
535.0,90.0,19.921568
535.0,95.0,18.90196
535.0,100.0,14.980392
535.0,105.0,6.666666
535.0,110.0,0.8627453
535.0,115.0,0.07843208
535.0,120.0,0.0
535.0,125.0,0.15686226
535.0,130.0,2.1960793
535.0,135.0,9.411764
535.0,140.0,13.490196
535.0,145.0,10.90196
535.0,150.0,5.254902
535.0,155.0,1.4117641
535.0,160.0,0.15686226
535.0,165.0,0.07843208
535.0,170.0,0.0
535.0,175.0,0.0
535.0,180.0,0.0
535.0,185.0,0.07843208
535.0,190.0,0.07843208
535.0,195.0,0.07843208
535.0,200.0,0.0
535.0,205.0,0.07843208
535.0,210.0,0.07843208
535.0,215.0,0.07843208
535.0,220.0,0.0
535.0,225.0,0.0
535.0,230.0,0.0
535.0,235.0,0.0
535.0,240.0,0.0
535.0,245.0,0.0
535.0,250.0,0.0
535.0,255.0,0.0
535.0,260.0,0.0
535.0,265.0,0.0
535.0,270.0,0.0
535.0,275.0,0.0
535.0,280.0,0.0
535.0,285.0,0.0
535.0,290.0,0.0
535.0,295.0,0.0
540.0,0.0,0.0
540.0,5.0,0.0
540.0,10.0,0.0
540.0,15.0,0.0
540.0,20.0,0.0
540.0,25.0,0.0
540.0,30.0,0.0
540.0,35.0,0.0
540.0,40.0,0.0
540.0,45.0,0.0
540.0,50.0,0.0
540.0,55.0,0.0
540.0,60.0,0.0
540.0,65.0,0.07843208
540.0,70.0,0.94117737
540.0,75.0,6.588235
540.0,80.0,14.980392
540.0,85.0,19.058823
540.0,90.0,19.921568
540.0,95.0,18.90196
540.0,100.0,14.980392
540.0,105.0,6.745098
540.0,110.0,0.94117737
540.0,115.0,0.07843208
540.0,120.0,0.07843208
540.0,125.0,0.15686226
540.0,130.0,1.8039207
540.0,135.0,6.745098
540.0,140.0,7.215686
540.0,145.0,3.2156868
540.0,150.0,0.62745094
540.0,155.0,0.07843208
540.0,160.0,0.07843208
540.0,165.0,0.0
540.0,170.0,0.0
540.0,175.0,0.0
540.0,180.0,0.0
540.0,185.0,0.0
540.0,190.0,0.0
540.0,195.0,0.07843208
540.0,200.0,0.07843208
540.0,205.0,0.07843208
540.0,210.0,0.07843208
540.0,215.0,0.07843208
540.0,220.0,0.07843208
540.0,225.0,0.07843208
540.0,230.0,0.07843208
540.0,235.0,0.0
540.0,240.0,0.0
540.0,245.0,0.0
540.0,250.0,0.0
540.0,255.0,0.0
540.0,260.0,0.0
540.0,265.0,0.0
540.0,270.0,0.0
540.0,275.0,0.0
540.0,280.0,0.0
540.0,285.0,0.0
540.0,290.0,0.0
540.0,295.0,0.0
545.0,0.0,0.0
545.0,5.0,0.0
545.0,10.0,0.0
545.0,15.0,0.0
545.0,20.0,0.0
545.0,25.0,0.0
545.0,30.0,0.0
545.0,35.0,0.0
545.0,40.0,0.0
545.0,45.0,0.0
545.0,50.0,0.0
545.0,55.0,0.0
545.0,60.0,0.07843208
545.0,65.0,0.07843208
545.0,70.0,0.705883
545.0,75.0,5.7254896
545.0,80.0,13.882353
545.0,85.0,18.509804
545.0,90.0,19.764706
545.0,95.0,19.058823
545.0,100.0,15.137255
545.0,105.0,7.1372547
545.0,110.0,1.0196075
545.0,115.0,0.07843208
545.0,120.0,0.07843208
545.0,125.0,0.07843208
545.0,130.0,1.1764698
545.0,135.0,2.8235283
545.0,140.0,1.4901962
545.0,145.0,0.23529434
545.0,150.0,0.07843208
545.0,155.0,0.07843208
545.0,160.0,0.0
545.0,165.0,0.0
545.0,170.0,0.0
545.0,175.0,0.0
545.0,180.0,0.0
545.0,185.0,0.0
545.0,190.0,0.07843208
545.0,195.0,0.07843208
545.0,200.0,0.15686226
545.0,205.0,0.3921566
545.0,210.0,0.7843132
545.0,215.0,1.1764698
545.0,220.0,1.0980396
545.0,225.0,0.47058868
545.0,230.0,0.07843208
545.0,235.0,0.07843208
545.0,240.0,0.0
545.0,245.0,0.0
545.0,250.0,0.0
545.0,255.0,0.0
545.0,260.0,0.0
545.0,265.0,0.0
545.0,270.0,0.0
545.0,275.0,0.0
545.0,280.0,0.0
545.0,285.0,0.0
545.0,290.0,0.0
545.0,295.0,0.0
550.0,0.0,0.0
550.0,5.0,0.0
550.0,10.0,0.0
550.0,15.0,0.0
550.0,20.0,0.0
550.0,25.0,0.0
550.0,30.0,0.0
550.0,35.0,0.0
550.0,40.0,0.0
550.0,45.0,0.0
550.0,50.0,0.0
550.0,55.0,0.0
550.0,60.0,0.0
550.0,65.0,0.07843208
550.0,70.0,0.47058868
550.0,75.0,4.1568623
550.0,80.0,12.313725
550.0,85.0,17.882353
550.0,90.0,19.607843
550.0,95.0,19.215687
550.0,100.0,15.372549
550.0,105.0,7.45098
550.0,110.0,1.1764698
550.0,115.0,0.07843208
550.0,120.0,0.07843208
550.0,125.0,0.07843208
550.0,130.0,0.3921566
550.0,135.0,0.47058868
550.0,140.0,0.07843208
550.0,145.0,0.07843208
550.0,150.0,0.0
550.0,155.0,0.0
550.0,160.0,0.0
550.0,165.0,0.0
550.0,170.0,0.0
550.0,175.0,0.0
550.0,180.0,0.07843208
550.0,185.0,0.07843208
550.0,190.0,0.31372452
550.0,195.0,1.0980396
550.0,200.0,2.3529415
550.0,205.0,4.0
550.0,210.0,6.039215
550.0,215.0,7.6862736
550.0,220.0,7.294117
550.0,225.0,4.3921566
550.0,230.0,1.0980396
550.0,235.0,0.07843208
550.0,240.0,0.07843208
550.0,245.0,0.0
550.0,250.0,0.0
550.0,255.0,0.0
550.0,260.0,0.0
550.0,265.0,0.0
550.0,270.0,0.0
550.0,275.0,0.0
550.0,280.0,0.0
550.0,285.0,0.0
550.0,290.0,0.0
550.0,295.0,0.0
555.0,0.0,0.0
555.0,5.0,0.0
555.0,10.0,0.0
555.0,15.0,0.0
555.0,20.0,0.0
555.0,25.0,0.0
555.0,30.0,0.0
555.0,35.0,0.0
555.0,40.0,0.0
555.0,45.0,0.0
555.0,50.0,0.0
555.0,55.0,0.0
555.0,60.0,0.0
555.0,65.0,0.07843208
555.0,70.0,0.23529434
555.0,75.0,2.5882359
555.0,80.0,10.117647
555.0,85.0,16.784313
555.0,90.0,19.294117
555.0,95.0,19.215687
555.0,100.0,15.921568
555.0,105.0,8.078431
555.0,110.0,1.2549019
555.0,115.0,0.07843208
555.0,120.0,0.0
555.0,125.0,0.07843208
555.0,130.0,0.07843208
555.0,135.0,0.07843208
555.0,140.0,0.07843208
555.0,145.0,0.0
555.0,150.0,0.0
555.0,155.0,0.0
555.0,160.0,0.0
555.0,165.0,0.0
555.0,170.0,0.0
555.0,175.0,0.0
555.0,180.0,0.07843208
555.0,185.0,0.31372452
555.0,190.0,2.5098038
555.0,195.0,6.3529406
555.0,200.0,9.72549
555.0,205.0,12.313725
555.0,210.0,14.274509
555.0,215.0,15.529411
555.0,220.0,14.980392
555.0,225.0,11.137255
555.0,230.0,4.2352943
555.0,235.0,0.54901886
555.0,240.0,0.07843208
555.0,245.0,0.0
555.0,250.0,0.0
555.0,255.0,0.0
555.0,260.0,0.0
555.0,265.0,0.0
555.0,270.0,0.0
555.0,275.0,0.0
555.0,280.0,0.0
555.0,285.0,0.0
555.0,290.0,0.0
555.0,295.0,0.0
560.0,0.0,0.0
560.0,5.0,0.0
560.0,10.0,0.0
560.0,15.0,0.0
560.0,20.0,0.0
560.0,25.0,0.0
560.0,30.0,0.0
560.0,35.0,0.0
560.0,40.0,0.0
560.0,45.0,0.0
560.0,50.0,0.0
560.0,55.0,0.0
560.0,60.0,0.0
560.0,65.0,0.0
560.0,70.0,0.07843208
560.0,75.0,1.2549019
560.0,80.0,7.1372547
560.0,85.0,15.215687
560.0,90.0,18.90196
560.0,95.0,19.215687
560.0,100.0,16.392157
560.0,105.0,8.705882
560.0,110.0,1.333334
560.0,115.0,0.07843208
560.0,120.0,0.0
560.0,125.0,0.07843208
560.0,130.0,0.07843208
560.0,135.0,0.07843208
560.0,140.0,0.0
560.0,145.0,0.0
560.0,150.0,0.0
560.0,155.0,0.0
560.0,160.0,0.07843208
560.0,165.0,0.07843208
560.0,170.0,0.07843208
560.0,175.0,0.07843208
560.0,180.0,0.07843208
560.0,185.0,1.4117641
560.0,190.0,7.1372547
560.0,195.0,13.333333
560.0,200.0,16.470589
560.0,205.0,17.882353
560.0,210.0,18.745098
560.0,215.0,19.215687
560.0,220.0,18.352942
560.0,225.0,14.666666
560.0,230.0,6.9019604
560.0,235.0,1.0196075
560.0,240.0,0.07843208
560.0,245.0,0.0
560.0,250.0,0.0
560.0,255.0,0.0
560.0,260.0,0.0
560.0,265.0,0.0
560.0,270.0,0.0
560.0,275.0,0.0
560.0,280.0,0.0
560.0,285.0,0.0
560.0,290.0,0.0
560.0,295.0,0.0
565.0,0.0,0.0
565.0,5.0,0.0
565.0,10.0,0.0
565.0,15.0,0.0
565.0,20.0,0.0
565.0,25.0,0.0
565.0,30.0,0.0
565.0,35.0,0.0
565.0,40.0,0.0
565.0,45.0,0.0
565.0,50.0,0.0
565.0,55.0,0.0
565.0,60.0,0.0
565.0,65.0,0.0
565.0,70.0,0.07843208
565.0,75.0,0.47058868
565.0,80.0,4.549019
565.0,85.0,12.784313
565.0,90.0,17.80392
565.0,95.0,19.215687
565.0,100.0,16.470589
565.0,105.0,8.941175
565.0,110.0,1.2549019
565.0,115.0,0.07843208
565.0,120.0,0.0
565.0,125.0,0.0
565.0,130.0,0.0
565.0,135.0,0.0
565.0,140.0,0.0
565.0,145.0,0.0
565.0,150.0,0.07843208
565.0,155.0,0.15686226
565.0,160.0,0.31372452
565.0,165.0,0.07843208
565.0,170.0,0.07843208
565.0,175.0,0.07843208
565.0,180.0,0.15686226
565.0,185.0,2.4313717
565.0,190.0,9.960784
565.0,195.0,16.470589
565.0,200.0,19.058823
565.0,205.0,19.450981
565.0,210.0,19.764706
565.0,215.0,19.921568
565.0,220.0,19.058823
565.0,225.0,15.529411
565.0,230.0,7.6862736
565.0,235.0,1.2549019
565.0,240.0,0.07843208
565.0,245.0,0.0
565.0,250.0,0.0
565.0,255.0,0.0
565.0,260.0,0.0
565.0,265.0,0.0
565.0,270.0,0.0
565.0,275.0,0.0
565.0,280.0,0.0
565.0,285.0,0.0
565.0,290.0,0.0
565.0,295.0,0.0
570.0,0.0,0.0
570.0,5.0,0.0
570.0,10.0,0.0
570.0,15.0,0.0
570.0,20.0,0.0
570.0,25.0,0.0
570.0,30.0,0.0
570.0,35.0,0.0
570.0,40.0,0.0
570.0,45.0,0.0
570.0,50.0,0.0
570.0,55.0,0.0
570.0,60.0,0.0
570.0,65.0,0.0
570.0,70.0,0.07843208
570.0,75.0,0.15686226
570.0,80.0,2.5098038
570.0,85.0,10.117647
570.0,90.0,16.784313
570.0,95.0,18.745098
570.0,100.0,15.372549
570.0,105.0,7.45098
570.0,110.0,0.7843132
570.0,115.0,0.07843208
570.0,120.0,0.0
570.0,125.0,0.0
570.0,130.0,0.0
570.0,135.0,0.0
570.0,140.0,0.0
570.0,145.0,0.07843208
570.0,150.0,0.3921566
570.0,155.0,1.8039207
570.0,160.0,2.039215
570.0,165.0,0.07843208
570.0,170.0,0.07843208
570.0,175.0,0.07843208
570.0,180.0,0.15686226
570.0,185.0,2.5098038
570.0,190.0,10.3529415
570.0,195.0,17.490196
570.0,200.0,19.450981
570.0,205.0,19.921568
570.0,210.0,19.921568
570.0,215.0,19.921568
570.0,220.0,19.058823
570.0,225.0,15.843138
570.0,230.0,7.7647057
570.0,235.0,1.333334
570.0,240.0,0.07843208
570.0,245.0,0.0
570.0,250.0,0.0
570.0,255.0,0.0
570.0,260.0,0.0
570.0,265.0,0.0
570.0,270.0,0.0
570.0,275.0,0.0
570.0,280.0,0.0
570.0,285.0,0.0
570.0,290.0,0.0
570.0,295.0,0.0
575.0,0.0,0.0
575.0,5.0,0.0
575.0,10.0,0.0
575.0,15.0,0.0
575.0,20.0,0.0
575.0,25.0,0.0
575.0,30.0,0.0
575.0,35.0,0.0
575.0,40.0,0.0
575.0,45.0,0.0
575.0,50.0,0.0
575.0,55.0,0.0
575.0,60.0,0.0
575.0,65.0,0.0
575.0,70.0,0.0
575.0,75.0,0.07843208
575.0,80.0,1.333334
575.0,85.0,7.5294113
575.0,90.0,15.372549
575.0,95.0,17.333334
575.0,100.0,12.705882
575.0,105.0,4.1568623
575.0,110.0,0.23529434
575.0,115.0,0.07843208
575.0,120.0,0.0
575.0,125.0,0.0
575.0,130.0,0.0
575.0,135.0,0.0
575.0,140.0,0.07843208
575.0,145.0,0.47058868
575.0,150.0,3.4509811
575.0,155.0,6.9019604
575.0,160.0,4.627451
575.0,165.0,0.07843208
575.0,170.0,0.07843208
575.0,175.0,0.07843208
575.0,180.0,0.15686226
575.0,185.0,2.5098038
575.0,190.0,10.274509
575.0,195.0,17.333334
575.0,200.0,19.450981
575.0,205.0,19.921568
575.0,210.0,19.921568
575.0,215.0,19.921568
575.0,220.0,19.058823
575.0,225.0,16.078432
575.0,230.0,8.0
575.0,235.0,1.4117641
575.0,240.0,0.07843208
575.0,245.0,0.0
575.0,250.0,0.0
575.0,255.0,0.0
575.0,260.0,0.0
575.0,265.0,0.0
575.0,270.0,0.0
575.0,275.0,0.0
575.0,280.0,0.0
575.0,285.0,0.0
575.0,290.0,0.0
575.0,295.0,0.0
580.0,0.0,0.0
580.0,5.0,0.0
580.0,10.0,0.0
580.0,15.0,0.0
580.0,20.0,0.0
580.0,25.0,0.0
580.0,30.0,0.0
580.0,35.0,0.0
580.0,40.0,0.0
580.0,45.0,0.0
580.0,50.0,0.0
580.0,55.0,0.0
580.0,60.0,0.0
580.0,65.0,0.0
580.0,70.0,0.0
580.0,75.0,0.07843208
580.0,80.0,0.62745094
580.0,85.0,5.5686274
580.0,90.0,12.784313
580.0,95.0,14.196078
580.0,100.0,7.5294113
580.0,105.0,1.2549019
580.0,110.0,0.07843208
580.0,115.0,0.0
580.0,120.0,0.0
580.0,125.0,0.0
580.0,130.0,0.0
580.0,135.0,0.07843208
580.0,140.0,0.15686226
580.0,145.0,2.8235283
580.0,150.0,9.6470585
580.0,155.0,11.607843
580.0,160.0,5.960784
580.0,165.0,0.15686226
580.0,170.0,0.07843208
580.0,175.0,0.07843208
580.0,180.0,0.15686226
580.0,185.0,2.3529415
580.0,190.0,10.274509
580.0,195.0,17.17647
580.0,200.0,19.450981
580.0,205.0,19.921568
580.0,210.0,19.921568
580.0,215.0,19.921568
580.0,220.0,19.215687
580.0,225.0,15.921568
580.0,230.0,8.470588
580.0,235.0,1.4117641
580.0,240.0,0.07843208
580.0,245.0,0.0
580.0,250.0,0.0
580.0,255.0,0.0
580.0,260.0,0.0
580.0,265.0,0.0
580.0,270.0,0.0
580.0,275.0,0.0
580.0,280.0,0.0
580.0,285.0,0.0
580.0,290.0,0.0
580.0,295.0,0.0
585.0,0.0,0.0
585.0,5.0,0.0
585.0,10.0,0.0
585.0,15.0,0.0
585.0,20.0,0.0
585.0,25.0,0.0
585.0,30.0,0.0
585.0,35.0,0.0
585.0,40.0,0.0
585.0,45.0,0.0
585.0,50.0,0.0
585.0,55.0,0.0
585.0,60.0,0.0
585.0,65.0,0.0
585.0,70.0,0.0
585.0,75.0,0.07843208
585.0,80.0,0.31372452
585.0,85.0,3.5294113
585.0,90.0,10.274509
585.0,95.0,9.019608
585.0,100.0,2.5098038
585.0,105.0,0.15686226
585.0,110.0,0.07843208
585.0,115.0,0.0
585.0,120.0,0.0
585.0,125.0,0.0
585.0,130.0,0.0
585.0,135.0,0.07843208
585.0,140.0,0.3921566
585.0,145.0,4.549019
585.0,150.0,12.156862
585.0,155.0,13.333333
585.0,160.0,6.588235
585.0,165.0,0.15686226
585.0,170.0,0.07843208
585.0,175.0,0.07843208
585.0,180.0,0.15686226
585.0,185.0,2.3529415
585.0,190.0,10.3529415
585.0,195.0,17.09804
585.0,200.0,19.450981
585.0,205.0,19.764706
585.0,210.0,19.921568
585.0,215.0,19.921568
585.0,220.0,19.294117
585.0,225.0,16.235294
585.0,230.0,8.549019
585.0,235.0,1.4117641
585.0,240.0,0.07843208
585.0,245.0,0.0
585.0,250.0,0.0
585.0,255.0,0.0
585.0,260.0,0.0
585.0,265.0,0.0
585.0,270.0,0.0
585.0,275.0,0.0
585.0,280.0,0.0
585.0,285.0,0.0
585.0,290.0,0.0
585.0,295.0,0.0
590.0,0.0,0.0
590.0,5.0,0.0
590.0,10.0,0.0
590.0,15.0,0.0
590.0,20.0,0.0
590.0,25.0,0.0
590.0,30.0,0.0
590.0,35.0,0.0
590.0,40.0,0.0
590.0,45.0,0.0
590.0,50.0,0.0
590.0,55.0,0.0
590.0,60.0,0.0
590.0,65.0,0.0
590.0,70.0,0.0
590.0,75.0,0.07843208
590.0,80.0,0.15686226
590.0,85.0,1.8823528
590.0,90.0,6.039215
590.0,95.0,3.5294113
590.0,100.0,0.47058868
590.0,105.0,0.07843208
590.0,110.0,0.0
590.0,115.0,0.0
590.0,120.0,0.0
590.0,125.0,0.0
590.0,130.0,0.0
590.0,135.0,0.07843208
590.0,140.0,0.31372452
590.0,145.0,3.294117
590.0,150.0,9.882353
590.0,155.0,12.392157
590.0,160.0,6.4313717
590.0,165.0,0.15686226
590.0,170.0,0.07843208
590.0,175.0,0.07843208
590.0,180.0,0.15686226
590.0,185.0,2.3529415
590.0,190.0,9.960784
590.0,195.0,16.941177
590.0,200.0,19.450981
590.0,205.0,19.764706
590.0,210.0,19.921568
590.0,215.0,19.921568
590.0,220.0,19.294117
590.0,225.0,16.235294
590.0,230.0,8.549019
590.0,235.0,1.4117641
590.0,240.0,0.07843208
590.0,245.0,0.0
590.0,250.0,0.0
590.0,255.0,0.0
590.0,260.0,0.0
590.0,265.0,0.0
590.0,270.0,0.0
590.0,275.0,0.0
590.0,280.0,0.0
590.0,285.0,0.0
590.0,290.0,0.0
590.0,295.0,0.0
595.0,0.0,0.0
595.0,5.0,0.0
595.0,10.0,0.0
595.0,15.0,0.0
595.0,20.0,0.0
595.0,25.0,0.0
595.0,30.0,0.0
595.0,35.0,0.0
595.0,40.0,0.0
595.0,45.0,0.0
595.0,50.0,0.0
595.0,55.0,0.0
595.0,60.0,0.0
595.0,65.0,0.0
595.0,70.0,0.0
595.0,75.0,0.0
595.0,80.0,0.07843208
595.0,85.0,0.94117737
595.0,90.0,2.4313717
595.0,95.0,0.7843132
595.0,100.0,0.07843208
595.0,105.0,0.07843208
595.0,110.0,0.0
595.0,115.0,0.0
595.0,120.0,0.07843208
595.0,125.0,0.07843208
595.0,130.0,0.07843208
595.0,135.0,0.0
595.0,140.0,0.07843208
595.0,145.0,1.333334
595.0,150.0,6.3529406
595.0,155.0,10.509804
595.0,160.0,6.039215
595.0,165.0,0.15686226
595.0,170.0,0.07843208
595.0,175.0,0.07843208
595.0,180.0,0.15686226
595.0,185.0,2.1176472
595.0,190.0,9.72549
595.0,195.0,16.941177
595.0,200.0,19.294117
595.0,205.0,19.764706
595.0,210.0,19.921568
595.0,215.0,19.921568
595.0,220.0,19.294117
595.0,225.0,16.078432
595.0,230.0,8.549019
595.0,235.0,1.4901962
595.0,240.0,0.07843208
595.0,245.0,0.0
595.0,250.0,0.0
595.0,255.0,0.0
595.0,260.0,0.0
595.0,265.0,0.0
595.0,270.0,0.0
595.0,275.0,0.0
595.0,280.0,0.0
595.0,285.0,0.0
595.0,290.0,0.0
595.0,295.0,0.0
600.0,0.0,0.0
600.0,5.0,0.0
600.0,10.0,0.0
600.0,15.0,0.0
600.0,20.0,0.0
600.0,25.0,0.0
600.0,30.0,0.0
600.0,35.0,0.0
600.0,40.0,0.0
600.0,45.0,0.0
600.0,50.0,0.0
600.0,55.0,0.0
600.0,60.0,0.0
600.0,65.0,0.0
600.0,70.0,0.0
600.0,75.0,0.0
600.0,80.0,0.07843208
600.0,85.0,0.23529434
600.0,90.0,0.54901886
600.0,95.0,0.07843208
600.0,100.0,0.07843208
600.0,105.0,0.0
600.0,110.0,0.0
600.0,115.0,0.07843208
600.0,120.0,0.07843208
600.0,125.0,0.15686226
600.0,130.0,0.07843208
600.0,135.0,0.07843208
600.0,140.0,0.0
600.0,145.0,0.31372452
600.0,150.0,2.5098038
600.0,155.0,6.745098
600.0,160.0,5.333333
600.0,165.0,0.15686226
600.0,170.0,0.07843208
600.0,175.0,0.0
600.0,180.0,0.07843208
600.0,185.0,2.039215
600.0,190.0,9.72549
600.0,195.0,16.62745
600.0,200.0,19.294117
600.0,205.0,19.764706
600.0,210.0,19.921568
600.0,215.0,19.921568
600.0,220.0,19.215687
600.0,225.0,15.921568
600.0,230.0,8.3137245
600.0,235.0,1.4901962
600.0,240.0,0.07843208
600.0,245.0,0.07843208
600.0,250.0,0.0
600.0,255.0,0.0
600.0,260.0,0.0
600.0,265.0,0.0
600.0,270.0,0.0
600.0,275.0,0.0
600.0,280.0,0.0
600.0,285.0,0.0
600.0,290.0,0.0
600.0,295.0,0.0
605.0,0.0,0.0
605.0,5.0,0.0
605.0,10.0,0.0
605.0,15.0,0.0
605.0,20.0,0.0
605.0,25.0,0.0
605.0,30.0,0.0
605.0,35.0,0.0
605.0,40.0,0.0
605.0,45.0,0.0
605.0,50.0,0.0
605.0,55.0,0.0
605.0,60.0,0.0
605.0,65.0,0.0
605.0,70.0,0.0
605.0,75.0,0.0
605.0,80.0,0.0
605.0,85.0,0.07843208
605.0,90.0,0.07843208
605.0,95.0,0.07843208
605.0,100.0,0.0
605.0,105.0,0.0
605.0,110.0,0.0
605.0,115.0,0.07843208
605.0,120.0,0.705883
605.0,125.0,1.4117641
605.0,130.0,0.47058868
605.0,135.0,0.07843208
605.0,140.0,0.07843208
605.0,145.0,0.07843208
605.0,150.0,0.705883
605.0,155.0,3.0588226
605.0,160.0,3.6862736
605.0,165.0,0.15686226
605.0,170.0,0.07843208
605.0,175.0,0.07843208
605.0,180.0,0.15686226
605.0,185.0,1.9607849
605.0,190.0,9.6470585
605.0,195.0,16.62745
605.0,200.0,19.294117
605.0,205.0,19.764706
605.0,210.0,19.921568
605.0,215.0,19.921568
605.0,220.0,19.215687
605.0,225.0,15.921568
605.0,230.0,8.470588
605.0,235.0,1.4117641
605.0,240.0,0.07843208
605.0,245.0,0.0
605.0,250.0,0.0
605.0,255.0,0.0
605.0,260.0,0.0
605.0,265.0,0.0
605.0,270.0,0.0
605.0,275.0,0.0
605.0,280.0,0.0
605.0,285.0,0.0
605.0,290.0,0.0
605.0,295.0,0.0
610.0,0.0,0.0
610.0,5.0,0.0
610.0,10.0,0.0
610.0,15.0,0.0
610.0,20.0,0.0
610.0,25.0,0.0
610.0,30.0,0.0
610.0,35.0,0.0
610.0,40.0,0.0
610.0,45.0,0.0
610.0,50.0,0.0
610.0,55.0,0.0
610.0,60.0,0.0
610.0,65.0,0.0
610.0,70.0,0.0
610.0,75.0,0.0
610.0,80.0,0.0
610.0,85.0,0.07843208
610.0,90.0,0.07843208
610.0,95.0,0.0
610.0,100.0,0.0
610.0,105.0,0.0
610.0,110.0,0.07843208
610.0,115.0,0.54901886
610.0,120.0,3.921568
610.0,125.0,5.5686274
610.0,130.0,1.9607849
610.0,135.0,0.23529434
610.0,140.0,0.07843208
610.0,145.0,0.07843208
610.0,150.0,0.07843208
610.0,155.0,0.8627453
610.0,160.0,1.7254906
610.0,165.0,0.07843208
610.0,170.0,0.07843208
610.0,175.0,0.07843208
610.0,180.0,0.07843208
610.0,185.0,1.9607849
610.0,190.0,9.254902
610.0,195.0,16.62745
610.0,200.0,19.294117
610.0,205.0,19.764706
610.0,210.0,19.921568
610.0,215.0,19.921568
610.0,220.0,19.294117
610.0,225.0,15.921568
610.0,230.0,8.235293
610.0,235.0,1.4117641
610.0,240.0,0.07843208
610.0,245.0,0.0
610.0,250.0,0.0
610.0,255.0,0.0
610.0,260.0,0.0
610.0,265.0,0.0
610.0,270.0,0.0
610.0,275.0,0.0
610.0,280.0,0.0
610.0,285.0,0.0
610.0,290.0,0.0
610.0,295.0,0.0
615.0,0.0,0.0
615.0,5.0,0.0
615.0,10.0,0.0
615.0,15.0,0.0
615.0,20.0,0.0
615.0,25.0,0.0
615.0,30.0,0.0
615.0,35.0,0.0
615.0,40.0,0.0
615.0,45.0,0.0
615.0,50.0,0.0
615.0,55.0,0.0
615.0,60.0,0.0
615.0,65.0,0.0
615.0,70.0,0.0
615.0,75.0,0.0
615.0,80.0,0.0
615.0,85.0,0.0
615.0,90.0,0.0
615.0,95.0,0.0
615.0,100.0,0.0
615.0,105.0,0.0
615.0,110.0,0.23529434
615.0,115.0,2.9803925
615.0,120.0,9.6470585
615.0,125.0,11.372549
615.0,130.0,5.7254896
615.0,135.0,1.0980396
615.0,140.0,0.07843208
615.0,145.0,0.07843208
615.0,150.0,0.07843208
615.0,155.0,0.07843208
615.0,160.0,0.47058868
615.0,165.0,0.07843208
615.0,170.0,0.07843208
615.0,175.0,0.07843208
615.0,180.0,0.07843208
615.0,185.0,1.7254906
615.0,190.0,9.019608
615.0,195.0,16.392157
615.0,200.0,19.294117
615.0,205.0,19.764706
615.0,210.0,19.921568
615.0,215.0,19.921568
615.0,220.0,19.058823
615.0,225.0,15.686275
615.0,230.0,8.0
615.0,235.0,1.333334
615.0,240.0,0.07843208
615.0,245.0,0.0
615.0,250.0,0.0
615.0,255.0,0.0
615.0,260.0,0.0
615.0,265.0,0.0
615.0,270.0,0.0
615.0,275.0,0.0
615.0,280.0,0.0
615.0,285.0,0.0
615.0,290.0,0.0
615.0,295.0,0.0
620.0,0.0,0.0
620.0,5.0,0.0
620.0,10.0,0.0
620.0,15.0,0.0
620.0,20.0,0.0
620.0,25.0,0.0
620.0,30.0,0.0
620.0,35.0,0.0
620.0,40.0,0.0
620.0,45.0,0.0
620.0,50.0,0.0
620.0,55.0,0.0
620.0,60.0,0.0
620.0,65.0,0.0
620.0,70.0,0.0
620.0,75.0,0.0
620.0,80.0,0.0
620.0,85.0,0.0
620.0,90.0,0.0
620.0,95.0,0.0
620.0,100.0,0.0
620.0,105.0,0.07843208
620.0,110.0,1.0980396
620.0,115.0,7.45098
620.0,120.0,15.137255
620.0,125.0,16.392157
620.0,130.0,11.215686
620.0,135.0,4.078431
620.0,140.0,0.62745094
620.0,145.0,0.07843208
620.0,150.0,0.07843208
620.0,155.0,0.07843208
620.0,160.0,0.07843208
620.0,165.0,0.07843208
620.0,170.0,0.07843208
620.0,175.0,0.0
620.0,180.0,0.07843208
620.0,185.0,1.2549019
620.0,190.0,7.45098
620.0,195.0,15.137255
620.0,200.0,18.745098
620.0,205.0,19.607843
620.0,210.0,19.764706
620.0,215.0,19.921568
620.0,220.0,19.215687
620.0,225.0,15.529411
620.0,230.0,7.45098
620.0,235.0,1.1764698
620.0,240.0,0.07843208
620.0,245.0,0.0
620.0,250.0,0.0
620.0,255.0,0.0
620.0,260.0,0.0
620.0,265.0,0.0
620.0,270.0,0.0
620.0,275.0,0.0
620.0,280.0,0.0
620.0,285.0,0.0
620.0,290.0,0.0
620.0,295.0,0.0
625.0,0.0,0.0
625.0,5.0,0.0
625.0,10.0,0.0
625.0,15.0,0.0
625.0,20.0,0.0
625.0,25.0,0.0
625.0,30.0,0.0
625.0,35.0,0.0
625.0,40.0,0.0
625.0,45.0,0.0
625.0,50.0,0.0
625.0,55.0,0.0
625.0,60.0,0.0
625.0,65.0,0.0
625.0,70.0,0.0
625.0,75.0,0.0
625.0,80.0,0.0
625.0,85.0,0.0
625.0,90.0,0.0
625.0,95.0,0.0
625.0,100.0,0.0
625.0,105.0,0.07843208
625.0,110.0,2.3529415
625.0,115.0,9.960784
625.0,120.0,16.784313
625.0,125.0,18.509804
625.0,130.0,15.372549
625.0,135.0,9.411764
625.0,140.0,3.0588226
625.0,145.0,0.47058868
625.0,150.0,0.07843208
625.0,155.0,0.0
625.0,160.0,0.07843208
625.0,165.0,0.07843208
625.0,170.0,0.07843208
625.0,175.0,0.07843208
625.0,180.0,0.07843208
625.0,185.0,0.47058868
625.0,190.0,4.3137255
625.0,195.0,10.745098
625.0,200.0,15.686275
625.0,205.0,17.882353
625.0,210.0,18.90196
625.0,215.0,19.450981
625.0,220.0,18.352942
625.0,225.0,14.196078
625.0,230.0,6.2745094
625.0,235.0,0.8627453
625.0,240.0,0.07843208
625.0,245.0,0.0
625.0,250.0,0.0
625.0,255.0,0.0
625.0,260.0,0.0
625.0,265.0,0.0
625.0,270.0,0.0
625.0,275.0,0.0
625.0,280.0,0.0
625.0,285.0,0.0
625.0,290.0,0.0
625.0,295.0,0.0
630.0,0.0,0.0
630.0,5.0,0.0
630.0,10.0,0.0
630.0,15.0,0.0
630.0,20.0,0.0
630.0,25.0,0.0
630.0,30.0,0.0
630.0,35.0,0.0
630.0,40.0,0.0
630.0,45.0,0.0
630.0,50.0,0.0
630.0,55.0,0.0
630.0,60.0,0.0
630.0,65.0,0.0
630.0,70.0,0.0
630.0,75.0,0.0
630.0,80.0,0.0
630.0,85.0,0.0
630.0,90.0,0.0
630.0,95.0,0.0
630.0,100.0,0.0
630.0,105.0,0.07843208
630.0,110.0,1.8039207
630.0,115.0,7.6862736
630.0,120.0,14.274509
630.0,125.0,17.80392
630.0,130.0,17.647058
630.0,135.0,14.431372
630.0,140.0,8.549019
630.0,145.0,2.9803925
630.0,150.0,0.47058868
630.0,155.0,0.07843208
630.0,160.0,0.07843208
630.0,165.0,0.0
630.0,170.0,0.0
630.0,175.0,0.0
630.0,180.0,0.07843208
630.0,185.0,0.07843208
630.0,190.0,1.0196075
630.0,195.0,4.2352943
630.0,200.0,8.784313
630.0,205.0,12.705882
630.0,210.0,15.137255
630.0,215.0,16.470589
630.0,220.0,15.372549
630.0,225.0,10.588235
630.0,230.0,3.5294113
630.0,235.0,0.3921566
630.0,240.0,0.07843208
630.0,245.0,0.0
630.0,250.0,0.0
630.0,255.0,0.0
630.0,260.0,0.0
630.0,265.0,0.0
630.0,270.0,0.0
630.0,275.0,0.0
630.0,280.0,0.0
630.0,285.0,0.0
630.0,290.0,0.0
630.0,295.0,0.0
635.0,0.0,0.0
635.0,5.0,0.0
635.0,10.0,0.0
635.0,15.0,0.0
635.0,20.0,0.0
635.0,25.0,0.0
635.0,30.0,0.0
635.0,35.0,0.0
635.0,40.0,0.0
635.0,45.0,0.0
635.0,50.0,0.0
635.0,55.0,0.0
635.0,60.0,0.0
635.0,65.0,0.0
635.0,70.0,0.0
635.0,75.0,0.0
635.0,80.0,0.0
635.0,85.0,0.0
635.0,90.0,0.0
635.0,95.0,0.0
635.0,100.0,0.0
635.0,105.0,0.07843208
635.0,110.0,0.47058868
635.0,115.0,2.9803925
635.0,120.0,8.078431
635.0,125.0,13.725491
635.0,130.0,17.17647
635.0,135.0,17.490196
635.0,140.0,14.039215
635.0,145.0,8.941175
635.0,150.0,3.4509811
635.0,155.0,0.705883
635.0,160.0,0.07843208
635.0,165.0,0.0
635.0,170.0,0.0
635.0,175.0,0.0
635.0,180.0,0.0
635.0,185.0,0.07843208
635.0,190.0,0.07843208
635.0,195.0,0.62745094
635.0,200.0,1.9607849
635.0,205.0,4.549019
635.0,210.0,7.843137
635.0,215.0,9.72549
635.0,220.0,8.705882
635.0,225.0,4.3921566
635.0,230.0,0.8627453
635.0,235.0,0.07843208
635.0,240.0,0.07843208
635.0,245.0,0.0
635.0,250.0,0.0
635.0,255.0,0.0
635.0,260.0,0.0
635.0,265.0,0.0
635.0,270.0,0.0
635.0,275.0,0.0
635.0,280.0,0.0
635.0,285.0,0.0
635.0,290.0,0.0
635.0,295.0,0.0
640.0,0.0,0.0
640.0,5.0,0.0
640.0,10.0,0.0
640.0,15.0,0.0
640.0,20.0,0.0
640.0,25.0,0.0
640.0,30.0,0.0
640.0,35.0,0.0
640.0,40.0,0.0
640.0,45.0,0.0
640.0,50.0,0.0
640.0,55.0,0.0
640.0,60.0,0.0
640.0,65.0,0.0
640.0,70.0,0.0
640.0,75.0,0.0
640.0,80.0,0.0
640.0,85.0,0.0
640.0,90.0,0.0
640.0,95.0,0.0
640.0,100.0,0.07843208
640.0,105.0,0.07843208
640.0,110.0,0.07843208
640.0,115.0,0.47058868
640.0,120.0,2.4313717
640.0,125.0,7.215686
640.0,130.0,13.333333
640.0,135.0,16.784313
640.0,140.0,17.09804
640.0,145.0,14.823529
640.0,150.0,9.960784
640.0,155.0,4.2352943
640.0,160.0,0.705883
640.0,165.0,0.07843208
640.0,170.0,0.0
640.0,175.0,0.0
640.0,180.0,0.0
640.0,185.0,0.0
640.0,190.0,0.07843208
640.0,195.0,0.07843208
640.0,200.0,0.15686226
640.0,205.0,0.47058868
640.0,210.0,1.333334
640.0,215.0,2.2745094
640.0,220.0,1.9607849
640.0,225.0,0.62745094
640.0,230.0,0.07843208
640.0,235.0,0.07843208
640.0,240.0,0.0
640.0,245.0,0.0
640.0,250.0,0.0
640.0,255.0,0.0
640.0,260.0,0.0
640.0,265.0,0.0
640.0,270.0,0.0
640.0,275.0,0.0
640.0,280.0,0.0
640.0,285.0,0.0
640.0,290.0,0.0
640.0,295.0,0.0
645.0,0.0,0.0
645.0,5.0,0.0
645.0,10.0,0.0
645.0,15.0,0.0
645.0,20.0,0.0
645.0,25.0,0.0
645.0,30.0,0.0
645.0,35.0,0.0
645.0,40.0,0.0
645.0,45.0,0.0
645.0,50.0,0.0
645.0,55.0,0.0
645.0,60.0,0.0
645.0,65.0,0.0
645.0,70.0,0.0
645.0,75.0,0.0
645.0,80.0,0.0
645.0,85.0,0.0
645.0,90.0,0.07843208
645.0,95.0,0.07843208
645.0,100.0,0.07843208
645.0,105.0,0.07843208
645.0,110.0,0.07843208
645.0,115.0,0.07843208
645.0,120.0,0.3921566
645.0,125.0,1.9607849
645.0,130.0,6.2745094
645.0,135.0,11.921569
645.0,140.0,15.843138
645.0,145.0,17.17647
645.0,150.0,15.372549
645.0,155.0,9.960784
645.0,160.0,3.1372547
645.0,165.0,0.07843208
645.0,170.0,0.07843208
645.0,175.0,0.0
645.0,180.0,0.07843208
645.0,185.0,0.07843208
645.0,190.0,0.07843208
645.0,195.0,0.0
645.0,200.0,0.07843208
645.0,205.0,0.07843208
645.0,210.0,0.07843208
645.0,215.0,0.15686226
645.0,220.0,0.15686226
645.0,225.0,0.07843208
645.0,230.0,0.0
645.0,235.0,0.0
645.0,240.0,0.0
645.0,245.0,0.0
645.0,250.0,0.0
645.0,255.0,0.0
645.0,260.0,0.0
645.0,265.0,0.0
645.0,270.0,0.0
645.0,275.0,0.0
645.0,280.0,0.0
645.0,285.0,0.0
645.0,290.0,0.0
645.0,295.0,0.0
650.0,0.0,0.0
650.0,5.0,0.0
650.0,10.0,0.0
650.0,15.0,0.0
650.0,20.0,0.0
650.0,25.0,0.0
650.0,30.0,0.0
650.0,35.0,0.0
650.0,40.0,0.0
650.0,45.0,0.0
650.0,50.0,0.0
650.0,55.0,0.0
650.0,60.0,0.0
650.0,65.0,0.0
650.0,70.0,0.0
650.0,75.0,0.0
650.0,80.0,0.0
650.0,85.0,0.0
650.0,90.0,0.07843208
650.0,95.0,0.47058868
650.0,100.0,0.54901886
650.0,105.0,0.15686226
650.0,110.0,0.07843208
650.0,115.0,0.0
650.0,120.0,0.07843208
650.0,125.0,0.15686226
650.0,130.0,1.4117641
650.0,135.0,4.705882
650.0,140.0,10.117647
650.0,145.0,14.431372
650.0,150.0,16.235294
650.0,155.0,13.6470585
650.0,160.0,5.7254896
650.0,165.0,0.07843208
650.0,170.0,0.07843208
650.0,175.0,0.07843208
650.0,180.0,0.07843208
650.0,185.0,0.07843208
650.0,190.0,0.07843208
650.0,195.0,0.07843208
650.0,200.0,0.07843208
650.0,205.0,0.0
650.0,210.0,0.07843208
650.0,215.0,0.07843208
650.0,220.0,0.07843208
650.0,225.0,0.0
650.0,230.0,0.0
650.0,235.0,0.0
650.0,240.0,0.0
650.0,245.0,0.0
650.0,250.0,0.0
650.0,255.0,0.0
650.0,260.0,0.0
650.0,265.0,0.0
650.0,270.0,0.0
650.0,275.0,0.0
650.0,280.0,0.0
650.0,285.0,0.0
650.0,290.0,0.0
650.0,295.0,0.0
655.0,0.0,0.0
655.0,5.0,0.0
655.0,10.0,0.0
655.0,15.0,0.0
655.0,20.0,0.0
655.0,25.0,0.0
655.0,30.0,0.0
655.0,35.0,0.0
655.0,40.0,0.0
655.0,45.0,0.0
655.0,50.0,0.0
655.0,55.0,0.0
655.0,60.0,0.0
655.0,65.0,0.0
655.0,70.0,0.0
655.0,75.0,0.0
655.0,80.0,0.0
655.0,85.0,0.0
655.0,90.0,0.23529434
655.0,95.0,2.1960793
655.0,100.0,3.4509811
655.0,105.0,1.4117641
655.0,110.0,0.15686226
655.0,115.0,0.07843208
655.0,120.0,0.0
655.0,125.0,0.07843208
655.0,130.0,0.15686226
655.0,135.0,0.8627453
655.0,140.0,3.2156868
655.0,145.0,7.6862736
655.0,150.0,11.921569
655.0,155.0,12.313725
655.0,160.0,6.4313717
655.0,165.0,0.15686226
655.0,170.0,0.07843208
655.0,175.0,0.07843208
655.0,180.0,0.07843208
655.0,185.0,0.31372452
655.0,190.0,0.54901886
655.0,195.0,0.31372452
655.0,200.0,0.07843208
655.0,205.0,0.07843208
655.0,210.0,0.07843208
655.0,215.0,0.07843208
655.0,220.0,0.0
655.0,225.0,0.0
655.0,230.0,0.0
655.0,235.0,0.0
655.0,240.0,0.0
655.0,245.0,0.0
655.0,250.0,0.0
655.0,255.0,0.0
655.0,260.0,0.0
655.0,265.0,0.0
655.0,270.0,0.0
655.0,275.0,0.0
655.0,280.0,0.0
655.0,285.0,0.0
655.0,290.0,0.0
655.0,295.0,0.0
660.0,0.0,0.0
660.0,5.0,0.0
660.0,10.0,0.0
660.0,15.0,0.0
660.0,20.0,0.0
660.0,25.0,0.0
660.0,30.0,0.0
660.0,35.0,0.0
660.0,40.0,0.0
660.0,45.0,0.0
660.0,50.0,0.0
660.0,55.0,0.0
660.0,60.0,0.0
660.0,65.0,0.0
660.0,70.0,0.0
660.0,75.0,0.0
660.0,80.0,0.0
660.0,85.0,0.07843208
660.0,90.0,0.705883
660.0,95.0,5.882353
660.0,100.0,9.411764
660.0,105.0,6.117647
660.0,110.0,1.9607849
660.0,115.0,0.31372452
660.0,120.0,0.07843208
660.0,125.0,0.0
660.0,130.0,0.07843208
660.0,135.0,0.07843208
660.0,140.0,0.47058868
660.0,145.0,1.8039207
660.0,150.0,5.0980387
660.0,155.0,7.294117
660.0,160.0,4.549019
660.0,165.0,0.07843208
660.0,170.0,0.07843208
660.0,175.0,0.07843208
660.0,180.0,0.07843208
660.0,185.0,0.23529434
660.0,190.0,0.3921566
660.0,195.0,0.23529434
660.0,200.0,0.07843208
660.0,205.0,0.07843208
660.0,210.0,0.07843208
660.0,215.0,0.07843208
660.0,220.0,0.0
660.0,225.0,0.0
660.0,230.0,0.0
660.0,235.0,0.0
660.0,240.0,0.0
660.0,245.0,0.0
660.0,250.0,0.0
660.0,255.0,0.0
660.0,260.0,0.0
660.0,265.0,0.0
660.0,270.0,0.0
660.0,275.0,0.0
660.0,280.0,0.0
660.0,285.0,0.0
660.0,290.0,0.0
660.0,295.0,0.0
665.0,0.0,0.0
665.0,5.0,0.0
665.0,10.0,0.0
665.0,15.0,0.0
665.0,20.0,0.0
665.0,25.0,0.0
665.0,30.0,0.0
665.0,35.0,0.0
665.0,40.0,0.0
665.0,45.0,0.0
665.0,50.0,0.0
665.0,55.0,0.0
665.0,60.0,0.0
665.0,65.0,0.0
665.0,70.0,0.0
665.0,75.0,0.0
665.0,80.0,0.0
665.0,85.0,0.07843208
665.0,90.0,1.6470585
665.0,95.0,9.490195
665.0,100.0,14.588235
665.0,105.0,12.784313
665.0,110.0,6.9803915
665.0,115.0,2.5098038
665.0,120.0,0.54901886
665.0,125.0,0.07843208
665.0,130.0,0.07843208
665.0,135.0,0.07843208
665.0,140.0,0.07843208
665.0,145.0,0.15686226
665.0,150.0,0.7843132
665.0,155.0,1.9607849
665.0,160.0,1.5686264
665.0,165.0,0.07843208
665.0,170.0,0.07843208
665.0,175.0,0.0
665.0,180.0,0.07843208
665.0,185.0,0.07843208
665.0,190.0,0.07843208
665.0,195.0,0.07843208
665.0,200.0,0.07843208
665.0,205.0,0.07843208
665.0,210.0,0.07843208
665.0,215.0,0.07843208
665.0,220.0,0.0
665.0,225.0,0.0
665.0,230.0,0.0
665.0,235.0,0.0
665.0,240.0,0.0
665.0,245.0,0.0
665.0,250.0,0.0
665.0,255.0,0.0
665.0,260.0,0.0
665.0,265.0,0.0
665.0,270.0,0.0
665.0,275.0,0.0
665.0,280.0,0.0
665.0,285.0,0.0
665.0,290.0,0.0
665.0,295.0,0.0
670.0,0.0,0.0
670.0,5.0,0.0
670.0,10.0,0.0
670.0,15.0,0.0
670.0,20.0,0.0
670.0,25.0,0.0
670.0,30.0,0.0
670.0,35.0,0.0
670.0,40.0,0.0
670.0,45.0,0.0
670.0,50.0,0.0
670.0,55.0,0.0
670.0,60.0,0.0
670.0,65.0,0.0
670.0,70.0,0.0
670.0,75.0,0.0
670.0,80.0,0.07843208
