x,y,z
504.0,162.0,41.960785
504.0,164.0,29.019608
504.0,206.0,15.098038
504.0,208.0,19.999998
504.0,210.0,23.137253
504.0,212.0,25.09804
504.0,214.0,26.862745
504.0,216.0,28.431372
504.0,218.0,28.039215
504.0,220.0,27.450981
504.0,222.0,25.09804
504.0,224.0,20.784313
504.0,226.0,17.254902
506.0,66.0,22.35294
506.0,68.0,31.568626
506.0,70.0,38.82353
506.0,72.0,43.333332
506.0,74.0,46.07843
506.0,76.0,47.64706
506.0,78.0,48.62745
506.0,80.0,49.019608
506.0,82.0,49.411766
506.0,84.0,49.60784
506.0,86.0,49.60784
506.0,88.0,49.80392
506.0,90.0,49.80392
506.0,92.0,49.80392
506.0,94.0,49.60784
506.0,96.0,49.60784
506.0,98.0,49.411766
506.0,100.0,49.019608
506.0,102.0,48.431374
506.0,104.0,47.64706
506.0,106.0,46.07843
506.0,108.0,43.333332
506.0,110.0,39.019608
506.0,112.0,31.568626
506.0,126.0,16.27451
506.0,128.0,25.09804
506.0,130.0,34.117645
506.0,132.0,39.80392
506.0,134.0,43.92157
506.0,136.0,46.27451
506.0,138.0,47.843136
506.0,140.0,48.62745
506.0,142.0,49.215687
506.0,144.0,49.411766
506.0,146.0,49.60784
506.0,148.0,49.60784
506.0,150.0,49.411766
506.0,152.0,49.215687
506.0,154.0,49.019608
506.0,156.0,48.431374
506.0,158.0,47.058823
506.0,160.0,45.294117
506.0,162.0,41.960785
506.0,164.0,29.411764
506.0,214.0,17.254902
506.0,216.0,19.215685
506.0,218.0,18.235292
506.0,220.0,18.235292
506.0,222.0,15.098038
508.0,66.0,23.137253
508.0,68.0,31.960783
508.0,70.0,39.019608
508.0,72.0,43.137253
508.0,74.0,46.07843
508.0,76.0,47.64706
508.0,78.0,48.62745
508.0,80.0,49.019608
508.0,82.0,49.411766
508.0,84.0,49.60784
508.0,86.0,49.60784
508.0,88.0,49.80392
508.0,90.0,49.80392
508.0,92.0,49.80392
508.0,94.0,49.60784
508.0,96.0,49.60784
508.0,98.0,49.411766
508.0,100.0,49.019608
508.0,102.0,48.431374
508.0,104.0,47.45098
508.0,106.0,45.686275
508.0,108.0,42.7451
508.0,110.0,38.235294
508.0,112.0,29.411764
508.0,126.0,17.254902
508.0,128.0,27.450981
508.0,130.0,35.490196
508.0,132.0,40.980392
508.0,134.0,44.509804
508.0,136.0,46.862743
508.0,138.0,48.039215
508.0,140.0,48.82353
508.0,142.0,49.215687
508.0,144.0,49.411766
508.0,146.0,49.60784
508.0,148.0,49.60784
508.0,150.0,49.411766
508.0,152.0,49.411766
508.0,154.0,49.019608
508.0,156.0,48.431374
508.0,158.0,47.2549
508.0,160.0,45.294117
508.0,162.0,41.960785
508.0,164.0,29.411764
508.0,166.0,15.098038
508.0,184.0,17.254902
508.0,186.0,17.254902
508.0,188.0,16.27451
510.0,66.0,22.35294
510.0,68.0,31.568626
510.0,70.0,38.82353
510.0,72.0,43.333332
510.0,74.0,46.07843
510.0,76.0,47.64706
510.0,78.0,48.431374
510.0,80.0,49.019608
510.0,82.0,49.411766
510.0,84.0,49.60784
510.0,86.0,49.60784
510.0,88.0,49.80392
510.0,90.0,49.80392
510.0,92.0,49.80392
510.0,94.0,49.60784
510.0,96.0,49.60784
510.0,98.0,49.411766
510.0,100.0,49.019608
510.0,102.0,48.235294
510.0,104.0,47.2549
510.0,106.0,45.294117
510.0,108.0,42.15686
510.0,110.0,37.2549
510.0,112.0,29.019608
510.0,126.0,19.215685
510.0,128.0,28.431372
510.0,130.0,36.27451
510.0,132.0,41.568626
510.0,134.0,45.098038
510.0,136.0,47.058823
510.0,138.0,48.235294
510.0,140.0,48.82353
510.0,142.0,49.411766
510.0,144.0,49.60784
510.0,146.0,49.60784
510.0,148.0,49.60784
510.0,150.0,49.411766
510.0,152.0,49.411766
510.0,154.0,49.019608
510.0,156.0,48.235294
510.0,158.0,47.058823
510.0,160.0,45.294117
510.0,162.0,41.960785
510.0,164.0,29.411764
510.0,166.0,15.098038
510.0,182.0,18.235292
510.0,184.0,21.568626
510.0,186.0,23.137253
510.0,188.0,23.137253
510.0,190.0,19.999998
510.0,192.0,17.254902
512.0,66.0,22.35294
512.0,68.0,31.17647
512.0,70.0,38.62745
512.0,72.0,43.137253
512.0,74.0,46.07843
512.0,76.0,47.64706
512.0,78.0,48.431374
512.0,80.0,49.019608
512.0,82.0,49.411766
512.0,84.0,49.60784
512.0,86.0,49.60784
512.0,88.0,49.80392
512.0,90.0,49.80392
512.0,92.0,49.80392
512.0,94.0,49.60784
512.0,96.0,49.60784
512.0,98.0,49.411766
512.0,100.0,49.019608
512.0,102.0,48.235294
512.0,104.0,47.2549
512.0,106.0,45.098038
512.0,108.0,41.960785
512.0,110.0,36.862743
512.0,112.0,24.509802
512.0,126.0,19.215685
512.0,128.0,29.411764
512.0,130.0,37.45098
512.0,132.0,42.35294
512.0,134.0,45.294117
512.0,136.0,47.2549
512.0,138.0,48.431374
512.0,140.0,49.019608
512.0,142.0,49.411766
512.0,144.0,49.60784
512.0,146.0,49.60784
512.0,148.0,49.60784
512.0,150.0,49.60784
512.0,152.0,49.411766
512.0,154.0,49.019608
512.0,156.0,48.431374
512.0,158.0,47.058823
512.0,160.0,45.098038
512.0,162.0,41.960785
512.0,164.0,29.019608
512.0,180.0,15.098038
512.0,182.0,20.784313
512.0,184.0,25.686274
512.0,186.0,29.019608
512.0,188.0,29.411764
512.0,190.0,28.039215
512.0,192.0,25.09804
512.0,194.0,23.137253
512.0,196.0,19.215685
514.0,66.0,21.568626
514.0,68.0,31.17647
514.0,70.0,38.82353
514.0,72.0,43.137253
514.0,74.0,45.882355
514.0,76.0,47.64706
514.0,78.0,48.431374
514.0,80.0,49.019608
514.0,82.0,49.411766
514.0,84.0,49.60784
514.0,86.0,49.60784
514.0,88.0,49.80392
514.0,90.0,49.80392
514.0,92.0,49.80392
514.0,94.0,49.60784
514.0,96.0,49.60784
514.0,98.0,49.215687
514.0,100.0,48.82353
514.0,102.0,48.039215
514.0,104.0,47.058823
514.0,106.0,44.901962
514.0,108.0,41.17647
514.0,110.0,35.88235
514.0,112.0,22.35294
514.0,126.0,20.784313
514.0,128.0,30.784313
514.0,130.0,38.235294
514.0,132.0,42.7451
514.0,134.0,45.686275
514.0,136.0,47.2549
514.0,138.0,48.431374
514.0,140.0,49.019608
514.0,142.0,49.411766
514.0,144.0,49.60784
514.0,146.0,49.60784
514.0,148.0,49.60784
514.0,150.0,49.411766
514.0,152.0,49.215687
514.0,154.0,49.019608
514.0,156.0,48.235294
514.0,158.0,47.058823
514.0,160.0,45.294117
514.0,162.0,41.960785
514.0,164.0,29.411764
514.0,166.0,15.098038
514.0,180.0,16.27451
514.0,182.0,23.137253
514.0,184.0,29.411764
514.0,186.0,33.333332
514.0,188.0,34.705883
514.0,190.0,34.705883
514.0,192.0,33.137253
514.0,194.0,30.784313
514.0,196.0,27.450981
514.0,198.0,23.921568
514.0,200.0,19.215685
514.0,202.0,16.27451
516.0,66.0,21.568626
516.0,68.0,31.17647
516.0,70.0,38.431374
516.0,72.0,43.137253
516.0,74.0,45.882355
516.0,76.0,47.64706
516.0,78.0,48.431374
516.0,80.0,49.019608
516.0,82.0,49.411766
516.0,84.0,49.60784
516.0,86.0,49.60784
516.0,88.0,49.80392
516.0,90.0,49.80392
516.0,92.0,49.80392
516.0,94.0,49.60784
516.0,96.0,49.60784
516.0,98.0,49.215687
516.0,100.0,48.82353
516.0,102.0,48.039215
516.0,104.0,46.862743
516.0,106.0,44.705883
516.0,108.0,40.980392
516.0,110.0,35.294117
516.0,112.0,18.235292
516.0,126.0,22.35294
516.0,128.0,31.568626
516.0,130.0,38.82353
516.0,132.0,43.137253
516.0,134.0,45.882355
516.0,136.0,47.45098
516.0,138.0,48.431374
516.0,140.0,49.019608
516.0,142.0,49.411766
516.0,144.0,49.60784
516.0,146.0,49.60784
516.0,148.0,49.60784
516.0,150.0,49.60784
516.0,152.0,49.411766
516.0,154.0,49.019608
516.0,156.0,48.235294
516.0,158.0,47.058823
516.0,160.0,45.098038
516.0,162.0,41.568626
516.0,164.0,29.411764
516.0,166.0,15.098038
516.0,180.0,18.235292
516.0,182.0,25.09804
516.0,184.0,31.960783
516.0,186.0,36.27451
516.0,188.0,38.235294
516.0,190.0,38.82353
516.0,192.0,38.62745
516.0,194.0,36.862743
516.0,196.0,34.901962
516.0,198.0,31.960783
516.0,200.0,28.431372
516.0,202.0,24.509802
516.0,204.0,20.784313
516.0,206.0,16.27451
518.0,66.0,21.568626
518.0,68.0,30.784313
518.0,70.0,38.235294
518.0,72.0,42.941177
518.0,74.0,45.882355
518.0,76.0,47.45098
518.0,78.0,48.431374
518.0,80.0,49.019608
518.0,82.0,49.411766
518.0,84.0,49.60784
518.0,86.0,49.60784
518.0,88.0,49.80392
518.0,90.0,49.80392
518.0,92.0,49.80392
518.0,94.0,49.60784
518.0,96.0,49.411766
518.0,98.0,49.215687
518.0,100.0,48.82353
518.0,102.0,48.039215
518.0,104.0,46.862743
518.0,106.0,44.509804
518.0,108.0,40.588234
518.0,110.0,34.901962
518.0,112.0,15.098038
518.0,126.0,23.137253
518.0,128.0,31.960783
518.0,130.0,39.019608
518.0,132.0,43.333332
518.0,134.0,46.07843
518.0,136.0,47.64706
518.0,138.0,48.431374
518.0,140.0,49.019608
518.0,142.0,49.411766
518.0,144.0,49.60784
518.0,146.0,49.60784
518.0,148.0,49.60784
518.0,150.0,49.411766
518.0,152.0,49.215687
518.0,154.0,48.82353
518.0,156.0,48.235294
518.0,158.0,47.058823
518.0,160.0,44.901962
518.0,162.0,41.37255
518.0,164.0,28.431372
518.0,180.0,18.235292
518.0,182.0,26.27451
518.0,184.0,33.137253
518.0,186.0,38.235294
518.0,188.0,40.39216
518.0,190.0,41.568626
518.0,192.0,41.568626
518.0,194.0,40.784313
518.0,196.0,39.60784
518.0,198.0,37.45098
518.0,200.0,34.705883
518.0,202.0,31.960783
518.0,204.0,28.039215
518.0,206.0,23.137253
518.0,208.0,19.999998
518.0,210.0,15.098038
520.0,66.0,19.999998
520.0,68.0,30.784313
520.0,70.0,37.647057
520.0,72.0,42.941177
520.0,74.0,45.686275
520.0,76.0,47.45098
520.0,78.0,48.431374
520.0,80.0,49.019608
520.0,82.0,49.411766
520.0,84.0,49.60784
520.0,86.0,49.60784
520.0,88.0,49.80392
520.0,90.0,49.80392
520.0,92.0,49.60784
520.0,94.0,49.60784
520.0,96.0,49.411766
520.0,98.0,49.215687
520.0,100.0,48.82353
520.0,102.0,48.039215
520.0,104.0,46.666668
520.0,106.0,44.313725
520.0,108.0,40.39216
520.0,110.0,34.313725
520.0,126.0,23.921568
520.0,128.0,32.7451
520.0,130.0,39.411766
520.0,132.0,43.52941
520.0,134.0,46.27451
520.0,136.0,47.64706
520.0,138.0,48.62745
520.0,140.0,49.019608
520.0,142.0,49.411766
520.0,144.0,49.60784
520.0,146.0,49.60784
520.0,148.0,49.60784
520.0,150.0,49.411766
520.0,152.0,49.215687
520.0,154.0,48.82353
520.0,156.0,48.039215
520.0,158.0,46.862743
520.0,160.0,44.509804
520.0,162.0,40.980392
520.0,164.0,28.039215
520.0,180.0,17.254902
520.0,182.0,26.862745
520.0,184.0,33.72549
520.0,186.0,39.019608
520.0,188.0,41.568626
520.0,190.0,42.7451
520.0,192.0,43.333332
520.0,194.0,42.941177
520.0,196.0,42.15686
520.0,198.0,40.784313
520.0,200.0,39.215687
520.0,202.0,36.862743
520.0,204.0,33.333332
520.0,206.0,30.392157
520.0,208.0,25.686274
520.0,210.0,21.568626
520.0,212.0,16.27451
522.0,66.0,19.215685
522.0,68.0,30.392157
522.0,70.0,37.647057
522.0,72.0,42.54902
522.0,74.0,45.686275
522.0,76.0,47.45098
522.0,78.0,48.431374
522.0,80.0,49.019608
522.0,82.0,49.411766
522.0,84.0,49.60784
522.0,86.0,49.60784
522.0,88.0,49.80392
522.0,90.0,49.80392
522.0,92.0,49.60784
522.0,94.0,49.60784
522.0,96.0,49.411766
522.0,98.0,49.215687
522.0,100.0,48.82353
522.0,102.0,48.039215
522.0,104.0,46.666668
522.0,106.0,44.117645
522.0,108.0,40.0
522.0,110.0,34.313725
522.0,124.0,15.098038
522.0,126.0,23.921568
522.0,128.0,33.333332
522.0,130.0,39.60784
522.0,132.0,43.72549
522.0,134.0,46.27451
522.0,136.0,47.64706
522.0,138.0,48.62745
522.0,140.0,49.215687
522.0,142.0,49.411766
522.0,144.0,49.60784
522.0,146.0,49.60784
522.0,148.0,49.60784
522.0,150.0,49.411766
522.0,152.0,49.215687
522.0,154.0,48.82353
522.0,156.0,48.039215
522.0,158.0,46.47059
522.0,160.0,44.117645
522.0,162.0,40.39216
522.0,164.0,26.27451
522.0,180.0,16.27451
522.0,182.0,25.09804
522.0,184.0,33.137253
522.0,186.0,38.62745
522.0,188.0,41.764706
522.0,190.0,43.333332
522.0,192.0,44.117645
522.0,194.0,43.92157
522.0,196.0,43.333332
522.0,198.0,42.35294
522.0,200.0,40.980392
522.0,202.0,39.019608
522.0,204.0,36.27451
522.0,206.0,33.72549
522.0,208.0,30.0
522.0,210.0,25.686274
522.0,212.0,20.784313
522.0,214.0,15.098038
524.0,66.0,19.215685
524.0,68.0,30.0
524.0,70.0,37.45098
524.0,72.0,42.54902
524.0,74.0,45.490196
524.0,76.0,47.2549
524.0,78.0,48.431374
524.0,80.0,49.019608
524.0,82.0,49.411766
524.0,84.0,49.60784
524.0,86.0,49.60784
524.0,88.0,49.80392
524.0,90.0,49.80392
524.0,92.0,49.60784
524.0,94.0,49.60784
524.0,96.0,49.411766
524.0,98.0,49.215687
524.0,100.0,48.62745
524.0,102.0,48.039215
524.0,104.0,46.47059
524.0,106.0,44.117645
524.0,108.0,40.0
524.0,110.0,33.72549
524.0,126.0,23.921568
524.0,128.0,33.333332
524.0,130.0,39.80392
524.0,132.0,43.92157
524.0,134.0,46.27451
524.0,136.0,47.843136
524.0,138.0,48.62745
524.0,140.0,49.215687
524.0,142.0,49.411766
524.0,144.0,49.60784
524.0,146.0,49.60784
524.0,148.0,49.60784
524.0,150.0,49.411766
524.0,152.0,49.019608
524.0,154.0,48.431374
524.0,156.0,47.45098
524.0,158.0,45.882355
524.0,160.0,43.333332
524.0,162.0,39.215687
524.0,164.0,24.509802
524.0,180.0,15.098038
524.0,182.0,23.137253
524.0,184.0,31.568626
524.0,186.0,37.058823
524.0,188.0,40.784313
524.0,190.0,42.54902
524.0,192.0,43.52941
524.0,194.0,43.52941
524.0,196.0,43.137253
524.0,198.0,42.15686
524.0,200.0,41.17647
524.0,202.0,39.215687
524.0,204.0,36.862743
524.0,206.0,34.117645
524.0,208.0,30.392157
524.0,210.0,25.686274
524.0,212.0,20.784313
524.0,214.0,15.098038
526.0,66.0,19.215685
526.0,68.0,30.0
526.0,70.0,37.2549
526.0,72.0,42.35294
526.0,74.0,45.294117
526.0,76.0,47.2549
526.0,78.0,48.431374
526.0,80.0,49.019608
526.0,82.0,49.411766
526.0,84.0,49.60784
526.0,86.0,49.60784
526.0,88.0,49.80392
526.0,90.0,49.80392
526.0,92.0,49.60784
526.0,94.0,49.60784
526.0,96.0,49.411766
526.0,98.0,49.215687
526.0,100.0,48.62745
526.0,102.0,48.039215
526.0,104.0,46.47059
526.0,106.0,43.92157
526.0,108.0,39.80392
526.0,110.0,33.72549
526.0,126.0,24.509802
526.0,128.0,33.72549
526.0,130.0,40.0
526.0,132.0,43.92157
526.0,134.0,46.47059
526.0,136.0,47.843136
526.0,138.0,48.62745
526.0,140.0,49.215687
526.0,142.0,49.411766
526.0,144.0,49.411766
526.0,146.0,49.411766
526.0,148.0,49.411766
526.0,150.0,49.019608
526.0,152.0,48.82353
526.0,154.0,48.039215
526.0,156.0,46.862743
526.0,158.0,45.098038
526.0,160.0,41.764706
526.0,162.0,36.862743
526.0,164.0,20.784313
526.0,182.0,19.215685
526.0,184.0,28.039215
526.0,186.0,34.313725
526.0,188.0,38.431374
526.0,190.0,40.588234
526.0,192.0,41.764706
526.0,194.0,41.764706
526.0,196.0,41.37255
526.0,198.0,40.39216
526.0,200.0,39.215687
526.0,202.0,37.2549
526.0,204.0,34.901962
526.0,206.0,31.960783
526.0,208.0,28.039215
526.0,210.0,23.921568
526.0,212.0,17.254902
528.0,66.0,18.235292
528.0,68.0,28.431372
528.0,70.0,36.862743
528.0,72.0,42.15686
528.0,74.0,45.294117
528.0,76.0,47.2549
528.0,78.0,48.235294
528.0,80.0,49.019608
528.0,82.0,49.411766
528.0,84.0,49.60784
528.0,86.0,49.60784
528.0,88.0,49.60784
528.0,90.0,49.80392
528.0,92.0,49.60784
528.0,94.0,49.60784
528.0,96.0,49.411766
528.0,98.0,49.215687
528.0,100.0,48.62745
528.0,102.0,47.843136
528.0,104.0,46.47059
528.0,106.0,43.92157
528.0,108.0,39.80392
528.0,110.0,33.72549
528.0,124.0,15.098038
528.0,126.0,25.09804
528.0,128.0,33.72549
528.0,130.0,40.0
528.0,132.0,44.117645
528.0,134.0,46.47059
528.0,136.0,47.843136
528.0,138.0,48.62745
528.0,140.0,49.019608
528.0,142.0,49.411766
528.0,144.0,49.411766
528.0,146.0,49.411766
528.0,148.0,49.215687
528.0,150.0,48.82353
528.0,152.0,48.235294
528.0,154.0,47.2549
528.0,156.0,45.882355
528.0,158.0,43.52941
528.0,160.0,40.0
528.0,162.0,34.117645
528.0,164.0,18.235292
528.0,182.0,16.27451
528.0,184.0,23.921568
528.0,186.0,30.0
528.0,188.0,34.705883
528.0,190.0,37.2549
528.0,192.0,38.431374
528.0,194.0,38.62745
528.0,196.0,38.431374
528.0,198.0,37.058823
528.0,200.0,35.294117
528.0,202.0,32.7451
528.0,204.0,30.392157
528.0,206.0,26.862745
528.0,208.0,21.568626
530.0,66.0,17.254902
530.0,68.0,28.039215
530.0,70.0,36.47059
530.0,72.0,41.960785
530.0,74.0,45.098038
530.0,76.0,47.2549
530.0,78.0,48.235294
530.0,80.0,49.019608
530.0,82.0,49.411766
530.0,84.0,49.60784
530.0,86.0,49.60784
530.0,88.0,49.60784
530.0,90.0,49.80392
530.0,92.0,49.60784
530.0,94.0,49.60784
530.0,96.0,49.411766
530.0,98.0,49.215687
530.0,100.0,48.82353
530.0,102.0,47.843136
530.0,104.0,46.47059
530.0,106.0,43.92157
530.0,108.0,39.80392
530.0,110.0,33.72549
530.0,112.0,16.27451
530.0,124.0,15.098038
530.0,126.0,25.09804
530.0,128.0,33.333332
530.0,130.0,40.19608
530.0,132.0,44.117645
530.0,134.0,46.47059
530.0,136.0,47.64706
530.0,138.0,48.62745
530.0,140.0,49.019608
530.0,142.0,49.215687
530.0,144.0,49.215687
530.0,146.0,49.019608
530.0,148.0,48.82353
530.0,150.0,48.235294
530.0,152.0,47.2549
530.0,154.0,46.27451
530.0,156.0,44.117645
530.0,158.0,41.17647
530.0,160.0,36.27451
530.0,162.0,29.411764
530.0,164.0,15.098038
530.0,184.0,17.254902
530.0,186.0,23.921568
530.0,188.0,29.019608
530.0,190.0,31.960783
530.0,192.0,33.333332
530.0,194.0,33.137253
530.0,196.0,31.960783
530.0,198.0,30.0
530.0,200.0,29.019608
530.0,202.0,25.09804
530.0,204.0,18.235292
532.0,66.0,17.254902
532.0,68.0,28.039215
532.0,70.0,36.27451
532.0,72.0,41.568626
532.0,74.0,45.098038
532.0,76.0,47.058823
532.0,78.0,48.235294
532.0,80.0,48.82353
532.0,82.0,49.215687
532.0,84.0,49.60784
532.0,86.0,49.60784
532.0,88.0,49.60784
532.0,90.0,49.80392
532.0,92.0,49.60784
532.0,94.0,49.60784
532.0,96.0,49.411766
532.0,98.0,49.215687
532.0,100.0,48.82353
532.0,102.0,47.843136
532.0,104.0,46.47059
532.0,106.0,43.92157
532.0,108.0,39.60784
532.0,110.0,33.333332
532.0,112.0,17.254902
532.0,124.0,15.098038
532.0,126.0,25.09804
532.0,128.0,34.117645
532.0,130.0,40.19608
532.0,132.0,44.117645
532.0,134.0,46.47059
532.0,136.0,47.64706
532.0,138.0,48.431374
532.0,140.0,48.82353
532.0,142.0,49.019608
532.0,144.0,49.019608
532.0,146.0,48.62745
532.0,148.0,48.039215
532.0,150.0,47.2549
532.0,152.0,46.07843
532.0,154.0,44.313725
532.0,156.0,41.37255
532.0,158.0,37.2549
532.0,160.0,31.17647
532.0,162.0,23.137253
532.0,186.0,16.27451
532.0,188.0,20.784313
532.0,190.0,23.921568
532.0,192.0,25.686274
532.0,194.0,25.686274
532.0,196.0,24.509802
532.0,198.0,19.999998
534.0,66.0,17.254902
534.0,68.0,27.450981
534.0,70.0,35.490196
534.0,72.0,41.37255
534.0,74.0,44.705883
534.0,76.0,47.058823
534.0,78.0,48.235294
534.0,80.0,48.82353
534.0,82.0,49.215687
534.0,84.0,49.60784
534.0,86.0,49.60784
534.0,88.0,49.60784
534.0,90.0,49.80392
534.0,92.0,49.60784
534.0,94.0,49.60784
534.0,96.0,49.411766
534.0,98.0,49.215687
534.0,100.0,48.82353
534.0,102.0,47.843136
534.0,104.0,46.47059
534.0,106.0,43.92157
534.0,108.0,39.80392
534.0,110.0,33.333332
534.0,112.0,18.235292
534.0,126.0,25.09804
534.0,128.0,34.117645
534.0,130.0,39.80392
534.0,132.0,43.92157
534.0,134.0,46.27451
534.0,136.0,47.64706
534.0,138.0,48.235294
534.0,140.0,48.62745
534.0,142.0,48.431374
534.0,144.0,48.431374
534.0,146.0,47.64706
534.0,148.0,46.862743
534.0,150.0,45.490196
534.0,152.0,43.72549
534.0,154.0,40.980392
534.0,156.0,37.058823
534.0,158.0,31.568626
534.0,160.0,23.921568
534.0,162.0,15.098038
534.0,190.0,15.098038
534.0,192.0,17.254902
534.0,194.0,15.098038
536.0,66.0,17.254902
536.0,68.0,26.862745
536.0,70.0,35.294117
536.0,72.0,41.17647
536.0,74.0,44.705883
536.0,76.0,46.862743
536.0,78.0,48.039215
536.0,80.0,48.82353
536.0,82.0,49.215687
536.0,84.0,49.411766
536.0,86.0,49.60784
536.0,88.0,49.60784
536.0,90.0,49.80392
536.0,92.0,49.60784
536.0,94.0,49.60784
536.0,96.0,49.411766
536.0,98.0,49.215687
536.0,100.0,48.62745
536.0,102.0,47.843136
536.0,104.0,46.47059
536.0,106.0,44.117645
536.0,108.0,39.80392
536.0,110.0,33.333332
536.0,112.0,23.921568
536.0,126.0,24.509802
536.0,128.0,33.72549
536.0,130.0,39.60784
536.0,132.0,43.92157
536.0,134.0,46.07843
536.0,136.0,47.058823
536.0,138.0,47.843136
536.0,140.0,48.039215
536.0,142.0,47.843136
536.0,144.0,47.45098
536.0,146.0,46.47059
536.0,148.0,45.098038
536.0,150.0,42.941177
536.0,152.0,40.39216
536.0,154.0,36.27451
536.0,156.0,30.392157
536.0,158.0,23.137253
538.0,66.0,16.27451
538.0,68.0,25.686274
538.0,70.0,34.313725
538.0,72.0,40.39216
538.0,74.0,44.509804
538.0,76.0,46.666668
538.0,78.0,48.039215
538.0,80.0,48.82353
538.0,82.0,49.215687
538.0,84.0,49.411766
538.0,86.0,49.60784
538.0,88.0,49.60784
538.0,90.0,49.80392
538.0,92.0,49.60784
538.0,94.0,49.60784
538.0,96.0,49.411766
538.0,98.0,49.215687
538.0,100.0,48.82353
538.0,102.0,47.843136
538.0,104.0,46.47059
538.0,106.0,44.117645
538.0,108.0,39.80392
538.0,110.0,33.72549
538.0,112.0,24.509802
538.0,126.0,24.509802
538.0,128.0,33.137253
538.0,130.0,39.411766
538.0,132.0,43.137253
538.0,134.0,45.686275
538.0,136.0,46.862743
538.0,138.0,47.2549
538.0,140.0,47.2549
538.0,142.0,46.666668
538.0,144.0,45.686275
538.0,146.0,44.117645
538.0,148.0,41.960785
538.0,150.0,38.82353
538.0,152.0,34.117645
538.0,154.0,28.039215
538.0,156.0,20.784313
540.0,66.0,15.098038
540.0,68.0,25.09804
540.0,70.0,34.117645
540.0,72.0,40.0
540.0,74.0,44.117645
540.0,76.0,46.47059
540.0,78.0,47.843136
540.0,80.0,48.82353
540.0,82.0,49.215687
540.0,84.0,49.411766
540.0,86.0,49.60784
540.0,88.0,49.60784
540.0,90.0,49.80392
540.0,92.0,49.60784
540.0,94.0,49.60784
540.0,96.0,49.411766
540.0,98.0,49.215687
540.0,100.0,48.82353
540.0,102.0,47.843136
540.0,104.0,46.47059
540.0,106.0,44.117645
540.0,108.0,40.0
540.0,110.0,34.117645
540.0,112.0,24.509802
540.0,124.0,15.098038
540.0,126.0,23.921568
540.0,128.0,32.7451
540.0,130.0,38.62745
540.0,132.0,42.7451
540.0,134.0,44.705883
540.0,136.0,45.882355
540.0,138.0,46.27451
540.0,140.0,45.882355
540.0,142.0,44.705883
540.0,144.0,43.137253
540.0,146.0,40.19608
540.0,148.0,36.862743
540.0,150.0,31.568626
540.0,152.0,26.27451
540.0,154.0,19.215685
542.0,66.0,15.098038
542.0,68.0,24.509802
542.0,70.0,33.333332
542.0,72.0,39.60784
542.0,74.0,43.92157
542.0,76.0,46.27451
542.0,78.0,47.843136
542.0,80.0,48.62745
542.0,82.0,49.215687
542.0,84.0,49.411766
542.0,86.0,49.60784
542.0,88.0,49.60784
542.0,90.0,49.80392
542.0,92.0,49.60784
542.0,94.0,49.60784
542.0,96.0,49.411766
542.0,98.0,49.215687
542.0,100.0,48.82353
542.0,102.0,47.843136
542.0,104.0,46.666668
542.0,106.0,44.313725
542.0,108.0,40.19608
542.0,110.0,34.117645
542.0,112.0,25.09804
542.0,126.0,22.35294
542.0,128.0,31.960783
542.0,130.0,37.843136
542.0,132.0,41.960785
542.0,134.0,43.52941
542.0,136.0,44.509804
542.0,138.0,44.313725
542.0,140.0,43.333332
542.0,142.0,41.37255
542.0,144.0,38.62745
542.0,146.0,34.313725
542.0,148.0,29.019608
542.0,150.0,21.568626
542.0,152.0,16.27451
542.0,206.0,15.098038
542.0,208.0,17.254902
542.0,210.0,18.235292
542.0,212.0,19.999998
542.0,214.0,22.35294
542.0,216.0,23.137253
542.0,218.0,22.35294
542.0,220.0,20.784313
542.0,222.0,18.235292
542.0,224.0,16.27451
544.0,68.0,23.137253
544.0,70.0,32.7451
544.0,72.0,39.019608
544.0,74.0,43.333332
544.0,76.0,46.27451
544.0,78.0,47.64706
544.0,80.0,48.431374
544.0,82.0,49.019608
544.0,84.0,49.411766
544.0,86.0,49.60784
544.0,88.0,49.60784
544.0,90.0,49.80392
544.0,92.0,49.80392
544.0,94.0,49.60784
544.0,96.0,49.411766
544.0,98.0,49.215687
544.0,100.0,48.82353
544.0,102.0,48.039215
544.0,104.0,46.666668
544.0,106.0,44.313725
544.0,108.0,40.39216
544.0,110.0,34.901962
544.0,112.0,25.686274
544.0,126.0,22.35294
544.0,128.0,31.17647
544.0,130.0,36.862743
544.0,132.0,40.39216
544.0,134.0,42.15686
544.0,136.0,42.7451
544.0,138.0,41.764706
544.0,140.0,40.0
544.0,142.0,36.27451
544.0,144.0,31.17647
544.0,146.0,25.686274
544.0,148.0,19.215685
544.0,200.0,15.098038
544.0,202.0,17.254902
544.0,204.0,20.784313
544.0,206.0,23.921568
544.0,208.0,26.862745
544.0,210.0,28.039215
544.0,212.0,30.392157
544.0,214.0,31.17647
544.0,216.0,31.960783
544.0,218.0,31.960783
544.0,220.0,31.17647
544.0,222.0,28.431372
544.0,224.0,25.686274
544.0,226.0,21.568626
544.0,228.0,15.098038
546.0,68.0,22.35294
546.0,70.0,31.568626
546.0,72.0,38.235294
546.0,74.0,42.941177
546.0,76.0,45.882355
546.0,78.0,47.45098
546.0,80.0,48.431374
546.0,82.0,49.019608
546.0,84.0,49.411766
546.0,86.0,49.60784
546.0,88.0,49.60784
546.0,90.0,49.80392
546.0,92.0,49.80392
546.0,94.0,49.60784
546.0,96.0,49.411766
546.0,98.0,49.215687
546.0,100.0,48.82353
546.0,102.0,48.039215
546.0,104.0,46.862743
546.0,106.0,44.509804
546.0,108.0,40.588234
546.0,110.0,34.901962
546.0,112.0,26.27451
546.0,126.0,20.784313
546.0,128.0,29.019608
546.0,130.0,34.901962
546.0,132.0,38.235294
546.0,134.0,39.215687
546.0,136.0,39.215687
546.0,138.0,37.2549
546.0,140.0,34.313725
546.0,142.0,28.431372
546.0,144.0,22.35294
546.0,146.0,15.098038
546.0,194.0,15.098038
546.0,196.0,18.235292
546.0,198.0,23.137253
546.0,200.0,25.09804
546.0,202.0,28.039215
546.0,204.0,30.784313
546.0,206.0,32.7451
546.0,208.0,35.294117
546.0,210.0,36.47059
546.0,212.0,37.647057
546.0,214.0,38.62745
546.0,216.0,39.019608
546.0,218.0,38.82353
546.0,220.0,38.431374
546.0,222.0,36.862743
546.0,224.0,34.901962
546.0,226.0,31.17647
546.0,228.0,25.686274
546.0,230.0,19.999998
548.0,68.0,20.784313
548.0,70.0,30.392157
548.0,72.0,37.45098
548.0,74.0,42.35294
548.0,76.0,45.294117
548.0,78.0,47.058823
548.0,80.0,48.235294
548.0,82.0,48.82353
548.0,84.0,49.215687
548.0,86.0,49.60784
548.0,88.0,49.60784
548.0,90.0,49.80392
548.0,92.0,49.80392
548.0,94.0,49.60784
548.0,96.0,49.411766
548.0,98.0,49.215687
548.0,100.0,48.82353
548.0,102.0,48.039215
548.0,104.0,46.862743
548.0,106.0,44.509804
548.0,108.0,40.784313
548.0,110.0,35.294117
548.0,112.0,26.862745
548.0,126.0,19.215685
548.0,128.0,26.862745
548.0,130.0,31.960783
548.0,132.0,34.313725
548.0,134.0,34.901962
548.0,136.0,33.72549
548.0,138.0,30.392157
548.0,140.0,25.09804
548.0,142.0,18.235292
548.0,190.0,15.098038
548.0,192.0,20.784313
548.0,194.0,25.09804
548.0,196.0,28.431372
548.0,198.0,31.960783
548.0,200.0,34.313725
548.0,202.0,36.47059
548.0,204.0,38.235294
548.0,206.0,39.411766
548.0,208.0,40.39216
548.0,210.0,41.764706
548.0,212.0,42.54902
548.0,214.0,43.137253
548.0,216.0,43.333332
548.0,218.0,43.333332
548.0,220.0,42.941177
548.0,222.0,41.960785
548.0,224.0,40.588234
548.0,226.0,38.235294
548.0,228.0,34.313725
548.0,230.0,29.019608
548.0,232.0,21.568626
550.0,68.0,19.215685
550.0,70.0,28.431372
550.0,72.0,36.07843
550.0,74.0,41.37255
550.0,76.0,44.705883
550.0,78.0,46.862743
550.0,80.0,48.039215
550.0,82.0,48.82353
550.0,84.0,49.215687
550.0,86.0,49.411766
550.0,88.0,49.60784
550.0,90.0,49.60784
550.0,92.0,49.80392
550.0,94.0,49.60784
550.0,96.0,49.411766
550.0,98.0,49.215687
550.0,100.0,48.82353
550.0,102.0,48.039215
550.0,104.0,46.862743
550.0,106.0,44.705883
550.0,108.0,40.980392
550.0,110.0,35.490196
550.0,112.0,27.450981
550.0,114.0,17.254902
550.0,126.0,17.254902
550.0,128.0,23.921568
550.0,130.0,28.039215
550.0,132.0,30.0
550.0,134.0,29.411764
550.0,136.0,25.09804
550.0,138.0,20.784313
550.0,140.0,15.098038
550.0,188.0,18.235292
550.0,190.0,25.686274
550.0,192.0,29.411764
550.0,194.0,33.72549
550.0,196.0,36.47059
550.0,198.0,38.82353
550.0,200.0,40.0
550.0,202.0,41.568626
550.0,204.0,42.54902
550.0,206.0,43.52941
550.0,208.0,44.313725
550.0,210.0,45.098038
550.0,212.0,45.686275
550.0,214.0,46.07843
550.0,216.0,46.07843
550.0,218.0,46.07843
550.0,220.0,45.882355
550.0,222.0,45.098038
550.0,224.0,44.313725
550.0,226.0,42.54902
550.0,228.0,39.60784
550.0,230.0,35.294117
550.0,232.0,29.411764
550.0,234.0,21.568626
552.0,68.0,17.254902
552.0,70.0,26.27451
552.0,72.0,34.705883
552.0,74.0,40.588234
552.0,76.0,44.117645
552.0,78.0,46.47059
552.0,80.0,47.843136
552.0,82.0,48.62745
552.0,84.0,49.019608
552.0,86.0,49.411766
552.0,88.0,49.60784
552.0,90.0,49.60784
552.0,92.0,49.60784
552.0,94.0,49.60784
552.0,96.0,49.60784
552.0,98.0,49.215687
552.0,100.0,48.82353
552.0,102.0,48.235294
552.0,104.0,47.058823
552.0,106.0,44.901962
552.0,108.0,41.17647
552.0,110.0,35.88235
552.0,112.0,27.450981
552.0,114.0,16.27451
552.0,128.0,19.999998
552.0,130.0,22.35294
552.0,132.0,23.137253
552.0,134.0,20.784313
552.0,136.0,16.27451
552.0,186.0,19.999998
552.0,188.0,26.862745
552.0,190.0,32.352943
552.0,192.0,36.27451
552.0,194.0,39.411766
552.0,196.0,41.568626
552.0,198.0,42.941177
552.0,200.0,43.92157
552.0,202.0,44.705883
552.0,204.0,45.686275
552.0,206.0,46.27451
552.0,208.0,46.47059
552.0,210.0,46.862743
552.0,212.0,47.2549
552.0,214.0,47.45098
552.0,216.0,47.64706
552.0,218.0,47.64706
552.0,220.0,47.45098
552.0,222.0,46.862743
552.0,224.0,46.27451
552.0,226.0,45.098038
552.0,228.0,42.941177
552.0,230.0,39.80392
552.0,232.0,35.294117
552.0,234.0,28.039215
552.0,236.0,18.235292
554.0,68.0,16.27451
554.0,70.0,24.509802
554.0,72.0,32.7451
554.0,74.0,39.215687
554.0,76.0,43.137253
554.0,78.0,45.882355
554.0,80.0,47.45098
554.0,82.0,48.431374
554.0,84.0,49.019608
554.0,86.0,49.411766
554.0,88.0,49.60784
554.0,90.0,49.60784
554.0,92.0,49.60784
554.0,94.0,49.60784
554.0,96.0,49.60784
554.0,98.0,49.215687
554.0,100.0,49.019608
554.0,102.0,48.235294
554.0,104.0,47.2549
554.0,106.0,45.098038
554.0,108.0,41.764706
554.0,110.0,36.07843
554.0,112.0,27.450981
554.0,114.0,16.27451
554.0,130.0,15.098038
554.0,132.0,15.098038
554.0,184.0,19.999998
554.0,186.0,27.450981
554.0,188.0,34.117645
554.0,190.0,38.431374
554.0,192.0,41.37255
554.0,194.0,43.333332
554.0,196.0,44.705883
554.0,198.0,45.686275
554.0,200.0,46.27451
554.0,202.0,46.862743
554.0,204.0,47.45098
554.0,206.0,47.64706
554.0,208.0,47.843136
554.0,210.0,48.235294
554.0,212.0,48.431374
554.0,214.0,48.431374
554.0,216.0,48.62745
554.0,218.0,48.62745
554.0,220.0,48.431374
554.0,222.0,48.039215
554.0,224.0,47.64706
554.0,226.0,46.666668
554.0,228.0,45.098038
554.0,230.0,42.54902
554.0,232.0,38.235294
554.0,234.0,32.352943
554.0,236.0,23.137253
556.0,70.0,20.784313
556.0,72.0,30.0
556.0,74.0,37.647057
556.0,76.0,42.35294
556.0,78.0,45.294117
556.0,80.0,47.058823
556.0,82.0,48.235294
556.0,84.0,48.82353
556.0,86.0,49.215687
556.0,88.0,49.411766
556.0,90.0,49.60784
556.0,92.0,49.60784
556.0,94.0,49.60784
556.0,96.0,49.60784
556.0,98.0,49.411766
556.0,100.0,49.019608
556.0,102.0,48.235294
556.0,104.0,47.2549
556.0,106.0,45.294117
556.0,108.0,41.960785
556.0,110.0,36.47059
556.0,112.0,28.039215
556.0,114.0,16.27451
556.0,182.0,16.27451
556.0,184.0,25.09804
556.0,186.0,33.333332
556.0,188.0,38.82353
556.0,190.0,41.960785
556.0,192.0,44.509804
556.0,194.0,45.882355
556.0,196.0,46.666668
556.0,198.0,47.2549
556.0,200.0,47.64706
556.0,202.0,48.039215
556.0,204.0,48.235294
556.0,206.0,48.431374
556.0,208.0,48.82353
556.0,210.0,48.82353
556.0,212.0,49.019608
556.0,214.0,49.019608
556.0,216.0,49.215687
556.0,218.0,49.215687
556.0,220.0,49.019608
556.0,222.0,48.82353
556.0,224.0,48.235294
556.0,226.0,47.45098
556.0,228.0,46.27451
556.0,230.0,43.92157
556.0,232.0,40.39216
556.0,234.0,34.901962
556.0,236.0,26.27451
556.0,238.0,15.098038
558.0,70.0,18.235292
558.0,72.0,27.450981
558.0,74.0,35.294117
558.0,76.0,40.784313
558.0,78.0,44.117645
558.0,80.0,46.47059
558.0,82.0,47.843136
558.0,84.0,48.62745
558.0,86.0,49.215687
558.0,88.0,49.411766
558.0,90.0,49.60784
558.0,92.0,49.60784
558.0,94.0,49.60784
558.0,96.0,49.60784
558.0,98.0,49.411766
558.0,100.0,49.019608
558.0,102.0,48.431374
558.0,104.0,47.2549
558.0,106.0,45.294117
558.0,108.0,41.960785
558.0,110.0,36.47059
558.0,112.0,28.039215
558.0,114.0,17.254902
558.0,182.0,21.568626
558.0,184.0,30.392157
558.0,186.0,37.2549
558.0,188.0,41.568626
558.0,190.0,44.313725
558.0,192.0,45.882355
558.0,194.0,47.058823
558.0,196.0,47.843136
558.0,198.0,48.235294
558.0,200.0,48.62745
558.0,202.0,48.82353
558.0,204.0,49.019608
558.0,206.0,49.019608
558.0,208.0,49.215687
558.0,210.0,49.215687
558.0,212.0,49.411766
558.0,214.0,49.411766
558.0,216.0,49.411766
558.0,218.0,49.411766
558.0,220.0,49.411766
558.0,222.0,49.019608
558.0,224.0,48.62745
558.0,226.0,48.039215
558.0,228.0,46.862743
558.0,230.0,45.098038
558.0,232.0,41.764706
558.0,234.0,37.058823
558.0,236.0,29.019608
558.0,238.0,18.235292
560.0,70.0,15.098038
560.0,72.0,23.921568
560.0,74.0,32.7451
560.0,76.0,39.215687
560.0,78.0,43.137253
560.0,80.0,45.686275
560.0,82.0,47.64706
560.0,84.0,48.431374
560.0,86.0,49.019608
560.0,88.0,49.411766
560.0,90.0,49.60784
560.0,92.0,49.60784
560.0,94.0,49.60784
560.0,96.0,49.60784
560.0,98.0,49.411766
560.0,100.0,49.019608
560.0,102.0,48.431374
560.0,104.0,47.45098
560.0,106.0,45.490196
560.0,108.0,42.15686
560.0,110.0,36.47059
560.0,112.0,28.039215
560.0,114.0,16.27451
560.0,182.0,24.509802
560.0,184.0,33.333332
560.0,186.0,39.80392
560.0,188.0,43.333332
560.0,190.0,45.686275
560.0,192.0,47.058823
560.0,194.0,48.039215
560.0,196.0,48.431374
560.0,198.0,48.82353
560.0,200.0,49.019608
560.0,202.0,49.215687
560.0,204.0,49.215687
560.0,206.0,49.411766
560.0,208.0,49.411766
560.0,210.0,49.60784
560.0,212.0,49.60784
560.0,214.0,49.60784
560.0,216.0,49.60784
560.0,218.0,49.60784
560.0,220.0,49.411766
560.0,222.0,49.411766
560.0,224.0,49.019608
560.0,226.0,48.431374
560.0,228.0,47.2549
560.0,230.0,45.686275
560.0,232.0,42.54902
560.0,234.0,37.45098
560.0,236.0,30.392157
560.0,238.0,20.784313
562.0,72.0,19.215685
562.0,74.0,29.411764
562.0,76.0,36.862743
562.0,78.0,41.960785
562.0,80.0,45.098038
562.0,82.0,47.058823
562.0,84.0,48.235294
562.0,86.0,48.82353
562.0,88.0,49.215687
562.0,90.0,49.411766
562.0,92.0,49.60784
562.0,94.0,49.60784
562.0,96.0,49.60784
562.0,98.0,49.411766
562.0,100.0,49.019608
562.0,102.0,48.431374
562.0,104.0,47.45098
562.0,106.0,45.686275
562.0,108.0,42.15686
562.0,110.0,37.058823
562.0,112.0,28.039215
562.0,114.0,16.27451
562.0,180.0,17.254902
562.0,182.0,26.862745
562.0,184.0,35.490196
562.0,186.0,41.17647
562.0,188.0,44.509804
562.0,190.0,46.666668
562.0,192.0,47.843136
562.0,194.0,48.431374
562.0,196.0,49.019608
562.0,198.0,49.215687
562.0,200.0,49.411766
562.0,202.0,49.411766
562.0,204.0,49.60784
562.0,206.0,49.60784
562.0,208.0,49.60784
562.0,210.0,49.60784
562.0,212.0,49.60784
562.0,214.0,49.60784
562.0,216.0,49.60784
562.0,218.0,49.60784
562.0,220.0,49.60784
562.0,222.0,49.411766
562.0,224.0,49.019608
562.0,226.0,48.431374
562.0,228.0,47.64706
562.0,230.0,45.882355
562.0,232.0,42.941177
562.0,234.0,38.431374
562.0,236.0,31.568626
562.0,238.0,21.568626
564.0,72.0,15.098038
564.0,74.0,25.09804
564.0,76.0,34.313725
564.0,78.0,40.39216
564.0,80.0,44.117645
564.0,82.0,46.47059
564.0,84.0,47.843136
564.0,86.0,48.62745
564.0,88.0,49.019608
564.0,90.0,49.411766
564.0,92.0,49.60784
564.0,94.0,49.60784
564.0,96.0,49.60784
564.0,98.0,49.411766
564.0,100.0,49.019608
564.0,102.0,48.431374
564.0,104.0,47.45098
564.0,106.0,45.686275
564.0,108.0,42.15686
564.0,110.0,36.47059
564.0,112.0,27.450981
564.0,114.0,15.098038
564.0,156.0,15.098038
564.0,158.0,19.999998
564.0,160.0,21.568626
564.0,162.0,21.568626
564.0,180.0,19.215685
564.0,182.0,28.431372
564.0,184.0,37.058823
564.0,186.0,42.15686
564.0,188.0,45.294117
564.0,190.0,47.058823
564.0,192.0,48.235294
564.0,194.0,48.82353
564.0,196.0,49.215687
564.0,198.0,49.411766
564.0,200.0,49.411766
564.0,202.0,49.60784
564.0,204.0,49.60784
564.0,206.0,49.60784
564.0,208.0,49.60784
564.0,210.0,49.60784
564.0,212.0,49.80392
564.0,214.0,49.80392
564.0,216.0,49.80392
564.0,218.0,49.60784
564.0,220.0,49.60784
564.0,222.0,49.411766
564.0,224.0,49.019608
564.0,226.0,48.62745
564.0,228.0,47.64706
564.0,230.0,46.07843
564.0,232.0,43.137253
564.0,234.0,38.62745
564.0,236.0,31.960783
564.0,238.0,22.35294
566.0,74.0,23.137253
566.0,76.0,32.352943
566.0,78.0,38.82353
566.0,80.0,42.941177
566.0,82.0,45.882355
566.0,84.0,47.45098
566.0,86.0,48.431374
566.0,88.0,49.019608
566.0,90.0,49.411766
566.0,92.0,49.60784
566.0,94.0,49.60784
566.0,96.0,49.60784
566.0,98.0,49.411766
566.0,100.0,49.019608
566.0,102.0,48.431374
566.0,104.0,47.45098
566.0,106.0,45.490196
566.0,108.0,41.960785
566.0,110.0,36.07843
566.0,112.0,26.27451
566.0,154.0,21.568626
566.0,156.0,25.686274
566.0,158.0,28.431372
566.0,160.0,30.0
566.0,162.0,28.039215
566.0,180.0,19.999998
566.0,182.0,29.411764
566.0,184.0,37.647057
566.0,186.0,42.54902
566.0,188.0,45.490196
566.0,190.0,47.2549
566.0,192.0,48.235294
566.0,194.0,49.019608
566.0,196.0,49.215687
566.0,198.0,49.411766
566.0,200.0,49.60784
566.0,202.0,49.60784
566.0,204.0,49.80392
566.0,206.0,49.80392
566.0,208.0,49.80392
566.0,210.0,49.80392
566.0,212.0,49.80392
566.0,214.0,49.80392
566.0,216.0,49.80392
566.0,218.0,49.60784
566.0,220.0,49.60784
566.0,222.0,49.411766
566.0,224.0,49.215687
566.0,226.0,48.62745
566.0,228.0,47.64706
566.0,230.0,46.27451
566.0,232.0,43.333332
566.0,234.0,38.82353
566.0,236.0,32.352943
566.0,238.0,23.137253
568.0,74.0,19.999998
568.0,76.0,29.019608
568.0,78.0,36.862743
568.0,80.0,41.764706
568.0,82.0,45.098038
568.0,84.0,47.058823
568.0,86.0,48.039215
568.0,88.0,48.82353
568.0,90.0,49.215687
568.0,92.0,49.411766
568.0,94.0,49.60784
568.0,96.0,49.60784
568.0,98.0,49.411766
568.0,100.0,49.019608
568.0,102.0,48.431374
568.0,104.0,47.2549
568.0,106.0,45.098038
568.0,108.0,41.17647
568.0,110.0,35.294117
568.0,112.0,24.509802
568.0,150.0,15.098038
568.0,152.0,23.921568
568.0,154.0,29.411764
568.0,156.0,33.72549
568.0,158.0,35.88235
568.0,160.0,34.705883
568.0,162.0,33.137253
568.0,164.0,16.27451
568.0,180.0,20.784313
568.0,182.0,30.784313
568.0,184.0,37.647057
568.0,186.0,42.54902
568.0,188.0,45.686275
568.0,190.0,47.2549
568.0,192.0,48.431374
568.0,194.0,49.019608
568.0,196.0,49.411766
568.0,198.0,49.60784
568.0,200.0,49.60784
568.0,202.0,49.80392
568.0,204.0,49.80392
568.0,206.0,49.80392
568.0,208.0,49.80392
568.0,210.0,49.80392
568.0,212.0,49.80392
568.0,214.0,49.80392
568.0,216.0,49.80392
568.0,218.0,49.60784
568.0,220.0,49.60784
568.0,222.0,49.411766
568.0,224.0,49.019608
568.0,226.0,48.62745
568.0,228.0,47.64706
568.0,230.0,46.07843
568.0,232.0,43.52941
568.0,234.0,39.215687
568.0,236.0,32.7451
568.0,238.0,23.137253
570.0,74.0,17.254902
570.0,76.0,26.27451
570.0,78.0,34.901962
570.0,80.0,40.39216
570.0,82.0,44.313725
570.0,84.0,46.47059
570.0,86.0,47.843136
570.0,88.0,48.62745
570.0,90.0,49.215687
570.0,92.0,49.411766
570.0,94.0,49.411766
570.0,96.0,49.411766
570.0,98.0,49.411766
570.0,100.0,48.82353
570.0,102.0,48.235294
570.0,104.0,46.862743
570.0,106.0,44.509804
570.0,108.0,40.0
570.0,110.0,33.137253
570.0,112.0,21.568626
570.0,148.0,18.235292
570.0,150.0,27.450981
570.0,152.0,33.333332
570.0,154.0,36.862743
570.0,156.0,39.215687
570.0,158.0,39.80392
570.0,160.0,39.215687
570.0,162.0,36.47059
570.0,164.0,19.999998
570.0,180.0,20.784313
570.0,182.0,30.784313
570.0,184.0,37.647057
570.0,186.0,42.7451
570.0,188.0,45.686275
570.0,190.0,47.2549
570.0,192.0,48.431374
570.0,194.0,49.019608
570.0,196.0,49.411766
570.0,198.0,49.60784
570.0,200.0,49.60784
570.0,202.0,49.80392
570.0,204.0,49.80392
570.0,206.0,49.80392
570.0,208.0,49.80392
570.0,210.0,49.80392
570.0,212.0,49.80392
570.0,214.0,49.80392
570.0,216.0,49.80392
570.0,218.0,49.60784
570.0,220.0,49.60784
570.0,222.0,49.411766
570.0,224.0,49.215687
570.0,226.0,48.62745
570.0,228.0,47.64706
570.0,230.0,46.07843
570.0,232.0,43.72549
570.0,234.0,39.215687
570.0,236.0,32.7451
570.0,238.0,22.35294
572.0,76.0,23.137253
572.0,78.0,32.7451
572.0,80.0,38.82353
572.0,82.0,43.333332
572.0,84.0,45.882355
572.0,86.0,47.45098
572.0,88.0,48.431374
572.0,90.0,49.019608
572.0,92.0,49.411766
572.0,94.0,49.411766
572.0,96.0,49.411766
572.0,98.0,49.215687
572.0,100.0,48.62745
572.0,102.0,47.843136
572.0,104.0,46.27451
572.0,106.0,43.333332
572.0,108.0,38.235294
572.0,110.0,30.392157
572.0,112.0,19.215685
572.0,146.0,20.784313
572.0,148.0,30.0
572.0,150.0,34.901962
572.0,152.0,38.82353
572.0,154.0,41.37255
572.0,156.0,42.54902
572.0,158.0,42.54902
572.0,160.0,41.17647
572.0,162.0,38.62745
572.0,164.0,21.568626
572.0,180.0,21.568626
572.0,182.0,30.784313
572.0,184.0,37.843136
572.0,186.0,42.941177
572.0,188.0,45.686275
572.0,190.0,47.2549
572.0,192.0,48.431374
572.0,194.0,49.019608
572.0,196.0,49.411766
572.0,198.0,49.60784
572.0,200.0,49.60784
572.0,202.0,49.80392
572.0,204.0,49.80392
572.0,206.0,49.80392
572.0,208.0,49.80392
572.0,210.0,49.80392
572.0,212.0,49.80392
572.0,214.0,49.80392
572.0,216.0,49.80392
572.0,218.0,49.60784
572.0,220.0,49.60784
572.0,222.0,49.411766
572.0,224.0,49.215687
572.0,226.0,48.62745
572.0,228.0,47.64706
572.0,230.0,46.27451
572.0,232.0,43.52941
572.0,234.0,39.215687
572.0,236.0,33.137253
572.0,238.0,23.137253
574.0,76.0,19.999998
574.0,78.0,30.0
574.0,80.0,37.058823
574.0,82.0,41.960785
574.0,84.0,45.294117
574.0,86.0,47.058823
574.0,88.0,48.235294
574.0,90.0,48.82353
574.0,92.0,49.215687
574.0,94.0,49.411766
574.0,96.0,49.411766
574.0,98.0,49.019608
574.0,100.0,48.431374
574.0,102.0,47.2549
574.0,104.0,45.490196
574.0,106.0,41.960785
574.0,108.0,35.88235
574.0,110.0,27.450981
574.0,112.0,15.098038
574.0,144.0,20.784313
574.0,146.0,30.0
574.0,148.0,36.27451
574.0,150.0,40.39216
574.0,152.0,42.941177
574.0,154.0,44.509804
574.0,156.0,44.901962
574.0,158.0,44.509804
574.0,160.0,43.137253
574.0,162.0,40.0
574.0,164.0,23.921568
574.0,180.0,20.784313
574.0,182.0,30.784313
574.0,184.0,37.843136
574.0,186.0,42.7451
574.0,188.0,45.686275
574.0,190.0,47.2549
574.0,192.0,48.431374
574.0,194.0,49.019608
574.0,196.0,49.411766
574.0,198.0,49.60784
574.0,200.0,49.60784
574.0,202.0,49.80392
574.0,204.0,49.80392
574.0,206.0,49.80392
574.0,208.0,49.80392
574.0,210.0,49.80392
574.0,212.0,49.80392
574.0,214.0,49.80392
574.0,216.0,49.80392
574.0,218.0,49.60784
574.0,220.0,49.60784
574.0,222.0,49.411766
574.0,224.0,49.215687
574.0,226.0,48.62745
574.0,228.0,47.64706
574.0,230.0,46.27451
574.0,232.0,43.72549
574.0,234.0,39.411766
574.0,236.0,33.137253
574.0,238.0,23.921568
576.0,76.0,18.235292
576.0,78.0,27.450981
576.0,80.0,35.294117
576.0,82.0,41.17647
576.0,84.0,44.509804
576.0,86.0,46.862743
576.0,88.0,47.843136
576.0,90.0,48.62745
576.0,92.0,49.019608
576.0,94.0,49.215687
576.0,96.0,49.019608
576.0,98.0,48.82353
576.0,100.0,48.039215
576.0,102.0,46.47059
576.0,104.0,44.117645
576.0,106.0,39.80392
576.0,108.0,33.137253
576.0,110.0,22.35294
576.0,142.0,19.215685
576.0,144.0,30.0
576.0,146.0,36.07843
576.0,148.0,40.980392
576.0,150.0,43.52941
576.0,152.0,45.294117
576.0,154.0,45.882355
576.0,156.0,46.27451
576.0,158.0,45.490196
576.0,160.0,43.92157
576.0,162.0,40.980392
576.0,164.0,23.921568
576.0,180.0,20.784313
576.0,182.0,30.784313
576.0,184.0,37.647057
576.0,186.0,42.7451
576.0,188.0,45.686275
576.0,190.0,47.45098
576.0,192.0,48.431374
576.0,194.0,49.019608
576.0,196.0,49.411766
576.0,198.0,49.60784
576.0,200.0,49.60784
576.0,202.0,49.80392
576.0,204.0,49.80392
576.0,206.0,49.80392
576.0,208.0,49.80392
576.0,210.0,49.80392
576.0,212.0,49.80392
576.0,214.0,49.80392
576.0,216.0,49.80392
576.0,218.0,49.60784
576.0,220.0,49.60784
576.0,222.0,49.411766
576.0,224.0,49.215687
576.0,226.0,48.62745
576.0,228.0,47.843136
576.0,230.0,46.27451
576.0,232.0,43.72549
576.0,234.0,39.411766
576.0,236.0,33.333332
576.0,238.0,23.137253
578.0,76.0,15.098038
578.0,78.0,24.509802
578.0,80.0,33.72549
578.0,82.0,40.0
578.0,84.0,43.92157
578.0,86.0,46.27451
578.0,88.0,47.64706
578.0,90.0,48.431374
578.0,92.0,48.82353
578.0,94.0,49.019608
578.0,96.0,48.62745
578.0,98.0,48.235294
578.0,100.0,47.2549
578.0,102.0,45.294117
578.0,104.0,41.960785
578.0,106.0,36.27451
578.0,108.0,28.039215
578.0,110.0,16.27451
578.0,140.0,16.27451
578.0,142.0,26.862745
578.0,144.0,35.294117
578.0,146.0,40.588234
578.0,148.0,43.72549
578.0,150.0,45.686275
578.0,152.0,46.666668
578.0,154.0,47.2549
578.0,156.0,47.058823
578.0,158.0,46.27451
578.0,160.0,44.705883
578.0,162.0,41.568626
578.0,164.0,25.09804
578.0,166.0,15.098038
578.0,180.0,19.999998
578.0,182.0,30.0
578.0,184.0,37.2549
578.0,186.0,42.54902
578.0,188.0,45.686275
578.0,190.0,47.2549
578.0,192.0,48.431374
578.0,194.0,49.019608
578.0,196.0,49.411766
578.0,198.0,49.60784
578.0,200.0,49.60784
578.0,202.0,49.80392
578.0,204.0,49.80392
578.0,206.0,49.80392
578.0,208.0,49.80392
578.0,210.0,49.80392
578.0,212.0,49.80392
578.0,214.0,49.80392
578.0,216.0,49.80392
578.0,218.0,49.60784
578.0,220.0,49.60784
578.0,222.0,49.411766
578.0,224.0,49.215687
578.0,226.0,48.62745
578.0,228.0,47.843136
578.0,230.0,46.47059
578.0,232.0,43.72549
578.0,234.0,39.411766
578.0,236.0,33.137253
578.0,238.0,23.921568
580.0,78.0,21.568626
580.0,80.0,31.568626
580.0,82.0,38.431374
580.0,84.0,42.941177
580.0,86.0,45.686275
580.0,88.0,47.2549
580.0,90.0,48.235294
580.0,92.0,48.62745
580.0,94.0,48.62745
580.0,96.0,48.235294
580.0,98.0,47.45098
580.0,100.0,46.07843
580.0,102.0,43.333332
580.0,104.0,39.215687
580.0,106.0,31.568626
580.0,108.0,21.568626
580.0,140.0,21.568626
580.0,142.0,31.568626
580.0,144.0,38.431374
580.0,146.0,43.137253
580.0,148.0,45.294117
580.0,150.0,47.058823
580.0,152.0,47.64706
580.0,154.0,47.843136
580.0,156.0,47.45098
580.0,158.0,46.862743
580.0,160.0,44.901962
580.0,162.0,41.764706
580.0,164.0,25.686274
580.0,166.0,15.098038
580.0,180.0,19.215685
580.0,182.0,30.0
580.0,184.0,37.058823
580.0,186.0,42.35294
580.0,188.0,45.686275
580.0,190.0,47.2549
580.0,192.0,48.431374
580.0,194.0,49.019608
580.0,196.0,49.411766
580.0,198.0,49.60784
580.0,200.0,49.60784
580.0,202.0,49.80392
580.0,204.0,49.80392
580.0,206.0,49.80392
580.0,208.0,49.80392
580.0,210.0,49.80392
580.0,212.0,49.80392
580.0,214.0,49.80392
580.0,216.0,49.80392
580.0,218.0,49.80392
580.0,220.0,49.60784
580.0,222.0,49.411766
580.0,224.0,49.215687
580.0,226.0,48.62745
580.0,228.0,47.843136
580.0,230.0,46.47059
580.0,232.0,43.72549
580.0,234.0,39.60784
580.0,236.0,33.333332
580.0,238.0,23.921568
582.0,78.0,19.215685
582.0,80.0,29.411764
582.0,82.0,37.058823
582.0,84.0,41.960785
582.0,86.0,45.098038
582.0,88.0,46.862743
582.0,90.0,47.843136
582.0,92.0,48.235294
582.0,94.0,48.235294
582.0,96.0,47.64706
582.0,98.0,46.47059
582.0,100.0,44.313725
582.0,102.0,40.784313
582.0,104.0,34.901962
582.0,106.0,25.09804
582.0,108.0,16.27451
582.0,138.0,15.098038
582.0,140.0,25.686274
582.0,142.0,34.705883
582.0,144.0,40.784313
582.0,146.0,44.509804
582.0,148.0,46.27451
582.0,150.0,47.45098
582.0,152.0,48.235294
582.0,154.0,48.235294
582.0,156.0,47.843136
582.0,158.0,47.058823
582.0,160.0,45.294117
582.0,162.0,41.960785
582.0,164.0,25.686274
582.0,166.0,15.098038
582.0,180.0,19.999998
582.0,182.0,30.0
582.0,184.0,37.058823
582.0,186.0,42.35294
582.0,188.0,45.490196
582.0,190.0,47.2549
582.0,192.0,48.431374
582.0,194.0,49.019608
582.0,196.0,49.411766
582.0,198.0,49.60784
582.0,200.0,49.60784
582.0,202.0,49.80392
582.0,204.0,49.80392
582.0,206.0,49.80392
582.0,208.0,49.80392
582.0,210.0,49.80392
582.0,212.0,49.80392
582.0,214.0,49.80392
582.0,216.0,49.80392
582.0,218.0,49.80392
582.0,220.0,49.60784
582.0,222.0,49.411766
582.0,224.0,49.215687
582.0,226.0,48.62745
582.0,228.0,47.843136
582.0,230.0,46.47059
582.0,232.0,43.72549
582.0,234.0,39.60784
582.0,236.0,33.72549
582.0,238.0,23.921568
584.0,78.0,16.27451
584.0,80.0,26.862745
584.0,82.0,35.294117
584.0,84.0,41.17647
584.0,86.0,44.509804
584.0,88.0,46.27451
584.0,90.0,47.64706
584.0,92.0,47.843136
584.0,94.0,47.64706
584.0,96.0,46.666668
584.0,98.0,45.098038
584.0,100.0,41.960785
584.0,102.0,37.2549
584.0,104.0,28.431372
584.0,106.0,19.215685
584.0,138.0,17.254902
584.0,140.0,27.450981
584.0,142.0,36.07843
584.0,144.0,41.568626
584.0,146.0,45.098038
584.0,148.0,46.862743
584.0,150.0,47.843136
584.0,152.0,48.431374
584.0,154.0,48.431374
584.0,156.0,48.039215
584.0,158.0,47.058823
584.0,160.0,45.294117
584.0,162.0,41.960785
584.0,164.0,24.509802
584.0,180.0,19.215685
584.0,182.0,30.0
584.0,184.0,37.2549
584.0,186.0,42.35294
584.0,188.0,45.490196
584.0,190.0,47.2549
584.0,192.0,48.235294
584.0,194.0,49.019608
584.0,196.0,49.411766
584.0,198.0,49.60784
584.0,200.0,49.60784
584.0,202.0,49.80392
584.0,204.0,49.80392
584.0,206.0,49.80392
584.0,208.0,49.80392
584.0,210.0,49.80392
584.0,212.0,49.80392
584.0,214.0,49.80392
584.0,216.0,49.80392
584.0,218.0,49.60784
584.0,220.0,49.60784
584.0,222.0,49.411766
584.0,224.0,49.215687
584.0,226.0,48.62745
584.0,228.0,47.843136
584.0,230.0,46.47059
584.0,232.0,43.72549
584.0,234.0,39.60784
584.0,236.0,33.72549
584.0,238.0,23.921568
584.0,240.0,15.098038
586.0,80.0,25.09804
586.0,82.0,33.333332
586.0,84.0,39.60784
586.0,86.0,43.52941
586.0,88.0,45.686275
586.0,90.0,46.862743
586.0,92.0,47.2549
586.0,94.0,46.666668
586.0,96.0,45.294117
586.0,98.0,42.941177
586.0,100.0,38.431374
586.0,102.0,31.568626
586.0,104.0,21.568626
586.0,138.0,17.254902
586.0,140.0,28.039215
586.0,142.0,36.862743
586.0,144.0,41.764706
586.0,146.0,45.098038
586.0,148.0,47.058823
586.0,150.0,47.843136
586.0,152.0,48.431374
586.0,154.0,48.431374
586.0,156.0,48.039215
586.0,158.0,47.058823
586.0,160.0,45.294117
586.0,162.0,42.15686
586.0,164.0,24.509802
586.0,166.0,15.098038
586.0,180.0,19.999998
586.0,182.0,29.411764
586.0,184.0,37.2549
586.0,186.0,42.35294
586.0,188.0,45.490196
586.0,190.0,47.2549
586.0,192.0,48.431374
586.0,194.0,49.019608
586.0,196.0,49.411766
586.0,198.0,49.60784
586.0,200.0,49.60784
586.0,202.0,49.80392
586.0,204.0,49.80392
586.0,206.0,49.80392
586.0,208.0,49.80392
586.0,210.0,49.80392
586.0,212.0,49.80392
586.0,214.0,49.80392
586.0,216.0,49.80392
586.0,218.0,49.60784
586.0,220.0,49.60784
586.0,222.0,49.411766
586.0,224.0,49.215687
586.0,226.0,48.62745
586.0,228.0,47.843136
586.0,230.0,46.47059
586.0,232.0,43.92157
586.0,234.0,39.60784
586.0,236.0,33.333332
586.0,238.0,24.509802
588.0,80.0,21.568626
588.0,82.0,31.568626
588.0,84.0,38.431374
588.0,86.0,42.35294
588.0,88.0,45.098038
588.0,90.0,46.07843
588.0,92.0,46.27451
588.0,94.0,45.490196
588.0,96.0,43.333332
588.0,98.0,39.80392
588.0,100.0,34.313725
