x,y,z
444.0,192.0,11.960785
444.0,195.0,9.411766
444.0,198.0,5.882351
444.0,201.0,3.1372528
447.0,72.0,3.5294113
447.0,75.0,11.372547
447.0,78.0,24.313725
447.0,81.0,35.68627
447.0,84.0,44.117645
447.0,87.0,47.64706
447.0,90.0,49.019608
447.0,93.0,49.80392
447.0,96.0,49.80392
447.0,99.0,49.80392
447.0,102.0,49.80392
447.0,105.0,49.80392
447.0,108.0,49.80392
447.0,111.0,49.80392
447.0,114.0,49.411766
447.0,117.0,49.80392
447.0,120.0,48.62745
447.0,123.0,46.27451
447.0,126.0,40.980392
447.0,129.0,32.941177
447.0,132.0,22.549019
447.0,135.0,12.35294
447.0,138.0,4.509804
447.0,183.0,2.5490189
447.0,186.0,8.431374
447.0,189.0,14.117645
447.0,192.0,15.882351
447.0,195.0,14.117645
447.0,198.0,9.215687
447.0,201.0,6.07843
447.0,204.0,3.1372528
447.0,207.0,1.3725471
450.0,72.0,4.3137245
450.0,75.0,12.941177
450.0,78.0,26.27451
450.0,81.0,37.45098
450.0,84.0,44.705883
450.0,87.0,48.039215
450.0,90.0,49.411766
450.0,93.0,49.80392
450.0,96.0,49.80392
450.0,99.0,49.80392
450.0,102.0,49.80392
450.0,105.0,49.80392
450.0,108.0,49.80392
450.0,111.0,49.80392
450.0,114.0,49.80392
450.0,117.0,48.62745
450.0,120.0,46.862743
450.0,123.0,42.941177
450.0,126.0,35.098038
450.0,129.0,26.27451
450.0,132.0,15.098038
450.0,135.0,6.666668
450.0,183.0,2.5490189
450.0,186.0,7.843136
450.0,189.0,12.941177
450.0,192.0,14.117645
450.0,195.0,12.35294
450.0,198.0,9.019608
450.0,201.0,5.490196
450.0,204.0,2.9411774
450.0,207.0,1.3725471
453.0,72.0,5.0980377
453.0,75.0,14.3137245
453.0,78.0,27.843138
453.0,81.0,38.431374
453.0,84.0,45.490196
453.0,87.0,48.235294
453.0,90.0,49.80392
453.0,93.0,49.80392
453.0,96.0,49.80392
453.0,99.0,49.80392
453.0,102.0,49.80392
453.0,105.0,49.80392
453.0,108.0,49.80392
453.0,111.0,49.80392
453.0,114.0,49.019608
453.0,117.0,47.64706
453.0,120.0,44.705883
453.0,123.0,38.431374
453.0,126.0,29.80392
453.0,129.0,18.235292
453.0,132.0,9.019608
453.0,183.0,2.1568642
453.0,186.0,5.6862755
453.0,189.0,8.431374
453.0,192.0,8.627449
453.0,195.0,6.4705887
453.0,198.0,4.1176453
453.0,201.0,2.5490189
453.0,204.0,1.3725471
456.0,69.0,1.1764717
456.0,72.0,5.6862755
456.0,75.0,16.07843
456.0,78.0,29.019608
456.0,81.0,40.588234
456.0,84.0,45.882355
456.0,87.0,48.235294
456.0,90.0,49.80392
456.0,93.0,49.411766
456.0,96.0,49.80392
456.0,99.0,49.80392
456.0,102.0,49.80392
456.0,105.0,49.80392
456.0,108.0,49.411766
456.0,111.0,49.80392
456.0,114.0,48.62745
456.0,117.0,46.27451
456.0,120.0,40.980392
456.0,123.0,33.72549
456.0,126.0,21.960783
456.0,129.0,11.764706
456.0,132.0,2.745098
456.0,156.0,1.3725471
456.0,159.0,2.1568642
456.0,162.0,1.5686264
456.0,183.0,1.3725471
456.0,186.0,3.1372528
456.0,189.0,3.9215698
456.0,192.0,2.9411774
456.0,195.0,1.7647057
456.0,198.0,1.1764717
459.0,69.0,1.3725471
459.0,72.0,6.666668
459.0,75.0,17.450981
459.0,78.0,30.784313
459.0,81.0,40.980392
459.0,84.0,46.862743
459.0,87.0,49.019608
459.0,90.0,49.80392
459.0,93.0,49.411766
459.0,96.0,49.80392
459.0,99.0,49.80392
459.0,102.0,49.80392
459.0,105.0,49.80392
459.0,108.0,49.411766
459.0,111.0,49.019608
459.0,114.0,47.64706
459.0,117.0,43.72549
459.0,120.0,37.058823
459.0,123.0,27.254902
459.0,126.0,15.294117
459.0,129.0,7.254902
459.0,153.0,1.3725471
459.0,156.0,3.5294113
459.0,159.0,4.3137245
459.0,162.0,2.5490189
459.0,186.0,1.3725471
459.0,189.0,1.1764717
462.0,69.0,1.7647057
462.0,72.0,7.254902
462.0,75.0,18.823528
462.0,78.0,31.764706
462.0,81.0,41.568626
462.0,84.0,46.862743
462.0,87.0,49.019608
462.0,90.0,49.80392
462.0,93.0,49.411766
462.0,96.0,49.80392
462.0,99.0,49.80392
462.0,102.0,49.80392
462.0,105.0,49.80392
462.0,108.0,49.411766
462.0,111.0,48.235294
462.0,114.0,45.490196
462.0,117.0,41.17647
462.0,120.0,31.37255
462.0,123.0,19.999998
462.0,126.0,9.411766
462.0,150.0,1.1764717
462.0,153.0,3.333332
462.0,156.0,6.8627434
462.0,159.0,7.0588226
462.0,162.0,3.7254906
465.0,69.0,1.7647057
465.0,72.0,7.843136
465.0,75.0,19.215685
465.0,78.0,32.7451
465.0,81.0,42.35294
465.0,84.0,46.862743
465.0,87.0,49.019608
465.0,90.0,49.80392
465.0,93.0,49.80392
465.0,96.0,49.80392
465.0,99.0,49.80392
465.0,102.0,49.80392
465.0,105.0,49.80392
465.0,108.0,48.62745
465.0,111.0,47.2549
465.0,114.0,43.333332
465.0,117.0,36.47059
465.0,120.0,25.294117
465.0,123.0,13.333332
465.0,126.0,5.0980377
465.0,150.0,2.5490189
465.0,153.0,7.450981
465.0,156.0,10.784313
465.0,159.0,10.0
465.0,162.0,4.9019623
468.0,69.0,1.9607849
468.0,72.0,8.235294
468.0,75.0,20.196077
468.0,78.0,32.941177
468.0,81.0,42.35294
468.0,84.0,47.64706
468.0,87.0,49.411766
468.0,90.0,49.80392
468.0,93.0,49.80392
468.0,96.0,49.80392
468.0,99.0,49.80392
468.0,102.0,49.80392
468.0,105.0,49.019608
468.0,108.0,48.235294
468.0,111.0,45.098038
468.0,114.0,39.215687
468.0,117.0,30.392157
468.0,120.0,19.215685
468.0,123.0,8.823528
468.0,147.0,1.9607849
468.0,150.0,6.07843
468.0,153.0,12.941177
468.0,156.0,16.470589
468.0,159.0,12.745098
468.0,162.0,5.6862755
471.0,69.0,1.9607849
471.0,72.0,8.627449
471.0,75.0,20.588234
471.0,78.0,34.117645
471.0,81.0,42.941177
471.0,84.0,47.64706
471.0,87.0,49.411766
471.0,90.0,49.80392
471.0,93.0,49.80392
471.0,96.0,49.80392
471.0,99.0,49.80392
471.0,102.0,49.80392
471.0,105.0,49.019608
471.0,108.0,46.47059
471.0,111.0,42.7451
471.0,114.0,35.098038
471.0,117.0,24.705881
471.0,120.0,11.960785
471.0,123.0,4.3137245
471.0,144.0,1.1764717
471.0,147.0,4.509804
471.0,150.0,10.980392
471.0,153.0,19.215685
471.0,156.0,21.17647
471.0,159.0,14.705883
471.0,162.0,6.07843
471.0,204.0,1.1764717
471.0,207.0,1.9607849
471.0,210.0,2.745098
471.0,213.0,3.333332
471.0,216.0,3.1372528
471.0,219.0,2.1568642
474.0,69.0,2.1568642
474.0,72.0,8.823528
474.0,75.0,20.784313
474.0,78.0,34.117645
474.0,81.0,42.7451
474.0,84.0,47.2549
474.0,87.0,49.411766
474.0,90.0,49.80392
474.0,93.0,49.80392
474.0,96.0,49.80392
474.0,99.0,49.80392
474.0,102.0,49.411766
474.0,105.0,48.039215
474.0,108.0,45.098038
474.0,111.0,39.215687
474.0,114.0,29.80392
474.0,117.0,18.039215
474.0,120.0,7.843136
474.0,144.0,2.9411774
474.0,147.0,8.235294
474.0,150.0,17.254902
474.0,153.0,25.294117
474.0,156.0,25.686274
474.0,159.0,16.862743
474.0,162.0,6.4705887
474.0,201.0,2.5490189
474.0,204.0,4.9019623
474.0,207.0,7.450981
474.0,210.0,9.803921
474.0,213.0,10.980392
474.0,216.0,10.588234
474.0,219.0,7.450981
474.0,222.0,3.333332
477.0,69.0,2.1568642
477.0,72.0,9.019608
477.0,75.0,21.372547
477.0,78.0,33.72549
477.0,81.0,42.941177
477.0,84.0,48.235294
477.0,87.0,49.411766
477.0,90.0,49.80392
477.0,93.0,49.80392
477.0,96.0,49.80392
477.0,99.0,49.80392
477.0,102.0,48.62745
477.0,105.0,46.47059
477.0,108.0,42.7451
477.0,111.0,34.705883
477.0,114.0,24.117645
477.0,117.0,12.15686
477.0,120.0,4.509804
477.0,141.0,1.3725471
477.0,144.0,5.6862755
477.0,147.0,13.725491
477.0,150.0,24.117645
477.0,153.0,30.392157
477.0,156.0,28.431372
477.0,159.0,18.235292
477.0,162.0,6.8627434
477.0,198.0,2.9411774
477.0,201.0,6.8627434
477.0,204.0,12.35294
477.0,207.0,17.450981
477.0,210.0,21.764704
477.0,213.0,23.137253
477.0,216.0,21.764704
477.0,219.0,16.07843
477.0,222.0,9.215687
477.0,225.0,3.5294113
480.0,69.0,2.3529396
480.0,72.0,9.019608
480.0,75.0,21.960783
480.0,78.0,34.705883
480.0,81.0,42.941177
480.0,84.0,47.64706
480.0,87.0,49.411766
480.0,90.0,49.80392
480.0,93.0,49.80392
480.0,96.0,49.80392
480.0,99.0,49.411766
480.0,102.0,48.235294
480.0,105.0,45.098038
480.0,108.0,39.60784
480.0,111.0,30.392157
480.0,114.0,18.823528
480.0,117.0,7.450981
480.0,141.0,2.9411774
480.0,144.0,9.215687
480.0,147.0,19.999998
480.0,150.0,29.80392
480.0,153.0,34.313725
480.0,156.0,30.392157
480.0,159.0,18.235292
480.0,162.0,6.666668
480.0,195.0,1.9607849
480.0,198.0,6.4705887
480.0,201.0,14.117645
480.0,204.0,22.549019
480.0,207.0,29.411764
480.0,210.0,32.7451
480.0,213.0,34.117645
480.0,216.0,31.960783
480.0,219.0,26.862745
480.0,222.0,18.039215
480.0,225.0,9.411766
480.0,228.0,3.333332
483.0,69.0,2.3529396
483.0,72.0,9.6078415
483.0,75.0,21.960783
483.0,78.0,34.313725
483.0,81.0,43.333332
483.0,84.0,47.64706
483.0,87.0,49.80392
483.0,90.0,49.80392
483.0,93.0,49.80392
483.0,96.0,49.80392
483.0,99.0,49.019608
483.0,102.0,46.862743
483.0,105.0,43.333332
483.0,108.0,36.07843
483.0,111.0,24.901958
483.0,114.0,12.745098
483.0,117.0,4.509804
483.0,138.0,1.5686264
483.0,141.0,6.07843
483.0,144.0,14.705883
483.0,147.0,26.470589
483.0,150.0,34.313725
483.0,153.0,37.45098
483.0,156.0,31.37255
483.0,159.0,19.215685
483.0,162.0,6.8627434
483.0,195.0,3.1372528
483.0,198.0,9.6078415
483.0,201.0,19.215685
483.0,204.0,29.80392
483.0,207.0,38.039215
483.0,210.0,40.19608
483.0,213.0,42.35294
483.0,216.0,40.588234
483.0,219.0,36.666664
483.0,222.0,26.862745
483.0,225.0,17.843136
483.0,228.0,7.6470566
483.0,231.0,2.5490189
486.0,69.0,2.5490189
486.0,72.0,9.803921
486.0,75.0,22.35294
486.0,78.0,34.313725
486.0,81.0,42.941177
486.0,84.0,48.039215
486.0,87.0,49.019608
486.0,90.0,49.80392
486.0,93.0,49.80392
486.0,96.0,49.411766
486.0,99.0,48.235294
486.0,102.0,46.27451
486.0,105.0,40.980392
486.0,108.0,31.960783
486.0,111.0,19.999998
486.0,114.0,8.823528
486.0,117.0,2.3529396
486.0,138.0,3.5294113
486.0,141.0,10.392155
486.0,144.0,21.17647
486.0,147.0,32.352943
486.0,150.0,38.82353
486.0,153.0,39.60784
486.0,156.0,32.352943
486.0,159.0,19.411764
486.0,162.0,6.8627434
486.0,195.0,3.5294113
486.0,198.0,10.784313
486.0,201.0,21.17647
486.0,204.0,31.764706
486.0,207.0,39.60784
486.0,210.0,42.941177
486.0,213.0,45.098038
486.0,216.0,45.490196
486.0,219.0,41.17647
486.0,222.0,34.313725
486.0,225.0,24.705881
486.0,228.0,13.137253
486.0,231.0,4.9019623
486.0,234.0,1.1764717
489.0,69.0,2.745098
489.0,72.0,9.6078415
489.0,75.0,22.549019
489.0,78.0,34.705883
489.0,81.0,42.941177
489.0,84.0,48.039215
489.0,87.0,49.411766
489.0,90.0,49.80392
489.0,93.0,49.80392
489.0,96.0,49.411766
489.0,99.0,48.235294
489.0,102.0,44.705883
489.0,105.0,38.431374
489.0,108.0,28.039215
489.0,111.0,15.686272
489.0,114.0,5.294117
489.0,135.0,1.5686264
489.0,138.0,6.07843
489.0,141.0,15.686272
489.0,144.0,27.254902
489.0,147.0,37.058823
489.0,150.0,41.568626
489.0,153.0,40.588234
489.0,156.0,32.352943
489.0,159.0,19.215685
489.0,162.0,7.0588226
489.0,195.0,2.9411774
489.0,198.0,8.823528
489.0,201.0,17.450981
489.0,204.0,27.254902
489.0,207.0,35.098038
489.0,210.0,40.19608
489.0,213.0,43.333332
489.0,216.0,43.72549
489.0,219.0,42.35294
489.0,222.0,36.07843
489.0,225.0,26.862745
489.0,228.0,15.686272
489.0,231.0,6.07843
489.0,234.0,1.3725471
492.0,69.0,2.5490189
492.0,72.0,10.0
492.0,75.0,22.941175
492.0,78.0,34.705883
492.0,81.0,43.333332
492.0,84.0,47.64706
492.0,87.0,49.411766
492.0,90.0,49.80392
492.0,93.0,49.80392
492.0,96.0,49.411766
492.0,99.0,47.64706
492.0,102.0,43.72549
492.0,105.0,35.68627
492.0,108.0,24.117645
492.0,111.0,11.568626
492.0,114.0,3.5294113
492.0,135.0,2.9411774
492.0,138.0,10.0
492.0,141.0,21.17647
492.0,144.0,32.7451
492.0,147.0,40.588234
492.0,150.0,44.117645
492.0,153.0,41.17647
492.0,156.0,32.352943
492.0,159.0,18.823528
492.0,162.0,7.254902
492.0,195.0,1.5686264
492.0,198.0,5.0980377
492.0,201.0,11.372547
492.0,204.0,19.215685
492.0,207.0,26.470589
492.0,210.0,32.7451
492.0,213.0,36.07843
492.0,216.0,37.45098
492.0,219.0,37.843136
492.0,222.0,32.352943
492.0,225.0,24.313725
492.0,228.0,14.3137245
492.0,231.0,5.294117
492.0,234.0,1.3725471
495.0,69.0,2.745098
495.0,72.0,10.196079
495.0,75.0,23.137253
495.0,78.0,34.705883
495.0,81.0,43.72549
495.0,84.0,48.039215
495.0,87.0,49.411766
495.0,90.0,49.80392
495.0,93.0,49.80392
495.0,96.0,48.62745
495.0,99.0,46.862743
495.0,102.0,41.568626
495.0,105.0,31.960783
495.0,108.0,20.588234
495.0,111.0,9.019608
495.0,114.0,1.9607849
495.0,132.0,1.1764717
495.0,135.0,5.0980377
495.0,138.0,14.705883
495.0,141.0,26.862745
495.0,144.0,36.47059
495.0,147.0,43.72549
495.0,150.0,44.705883
495.0,153.0,41.960785
495.0,156.0,32.7451
495.0,159.0,19.607841
495.0,162.0,7.450981
495.0,198.0,1.9607849
495.0,201.0,5.0980377
495.0,204.0,9.803921
495.0,207.0,15.294117
495.0,210.0,20.196077
495.0,213.0,25.686274
495.0,216.0,27.254902
495.0,219.0,27.450981
495.0,222.0,23.529411
495.0,225.0,16.07843
495.0,228.0,8.823528
495.0,231.0,2.9411774
498.0,69.0,2.9411774
498.0,72.0,10.196079
498.0,75.0,23.137253
498.0,78.0,35.68627
498.0,81.0,43.333332
498.0,84.0,47.2549
498.0,87.0,49.019608
498.0,90.0,49.411766
498.0,93.0,49.80392
498.0,96.0,48.62745
498.0,99.0,45.882355
498.0,102.0,39.80392
498.0,105.0,30.0
498.0,108.0,16.862743
498.0,111.0,6.2745094
498.0,114.0,1.1764717
498.0,132.0,2.1568642
498.0,135.0,7.843136
498.0,138.0,18.627449
498.0,141.0,30.980392
498.0,144.0,40.588234
498.0,147.0,45.490196
498.0,150.0,45.490196
498.0,153.0,41.960785
498.0,156.0,32.941177
498.0,159.0,20.196077
498.0,162.0,7.843136
498.0,201.0,1.5686264
498.0,204.0,3.5294113
498.0,207.0,6.07843
498.0,210.0,9.411766
498.0,213.0,12.15686
498.0,216.0,15.098038
498.0,219.0,14.3137245
498.0,222.0,11.764706
498.0,225.0,7.6470566
498.0,228.0,3.333332
501.0,69.0,2.9411774
501.0,72.0,10.588234
501.0,75.0,23.137253
501.0,78.0,35.490196
501.0,81.0,43.333332
501.0,84.0,47.64706
501.0,87.0,49.019608
501.0,90.0,49.80392
501.0,93.0,49.411766
501.0,96.0,48.62745
501.0,99.0,45.098038
501.0,102.0,37.843136
501.0,105.0,27.450981
501.0,108.0,14.117645
501.0,111.0,4.705883
501.0,132.0,3.5294113
501.0,135.0,10.980392
501.0,138.0,23.529411
501.0,141.0,35.490196
501.0,144.0,43.333332
501.0,147.0,46.862743
501.0,150.0,46.27451
501.0,153.0,41.568626
501.0,156.0,33.72549
501.0,159.0,20.196077
501.0,162.0,8.039215
501.0,207.0,1.5686264
501.0,210.0,2.745098
501.0,213.0,3.9215698
501.0,216.0,5.294117
501.0,219.0,5.0980377
501.0,222.0,3.9215698
501.0,225.0,2.1568642
504.0,69.0,2.9411774
504.0,72.0,10.588234
504.0,75.0,23.529411
504.0,78.0,35.68627
504.0,81.0,44.117645
504.0,84.0,48.039215
504.0,87.0,49.411766
504.0,90.0,49.80392
504.0,93.0,49.411766
504.0,96.0,47.64706
504.0,99.0,44.117645
504.0,102.0,36.07843
504.0,105.0,25.294117
504.0,108.0,11.960785
504.0,111.0,3.5294113
504.0,129.0,1.1764717
504.0,132.0,4.705883
504.0,135.0,14.117645
504.0,138.0,27.450981
504.0,141.0,37.843136
504.0,144.0,44.705883
504.0,147.0,47.64706
504.0,150.0,46.47059
504.0,153.0,42.35294
504.0,156.0,33.72549
504.0,159.0,20.784313
504.0,162.0,8.235294
504.0,216.0,1.1764717
507.0,69.0,2.9411774
507.0,72.0,10.392155
507.0,75.0,23.529411
507.0,78.0,36.07843
507.0,81.0,43.72549
507.0,84.0,48.039215
507.0,87.0,49.411766
507.0,90.0,49.80392
507.0,93.0,49.411766
507.0,96.0,47.64706
507.0,99.0,42.941177
507.0,102.0,34.705883
507.0,105.0,22.549019
507.0,108.0,10.0
507.0,111.0,2.5490189
507.0,129.0,1.3725471
507.0,132.0,6.07843
507.0,135.0,16.862743
507.0,138.0,30.392157
507.0,141.0,40.19608
507.0,144.0,46.27451
507.0,147.0,48.039215
507.0,150.0,46.47059
507.0,153.0,42.35294
507.0,156.0,34.117645
507.0,159.0,20.588234
507.0,162.0,8.235294
510.0,69.0,2.9411774
510.0,72.0,10.588234
510.0,75.0,22.941175
510.0,78.0,35.098038
510.0,81.0,43.72549
510.0,84.0,47.64706
510.0,87.0,49.411766
510.0,90.0,49.80392
510.0,93.0,49.411766
510.0,96.0,47.2549
510.0,99.0,42.35294
510.0,102.0,33.333332
510.0,105.0,21.17647
510.0,108.0,8.627449
510.0,111.0,2.1568642
510.0,129.0,1.9607849
510.0,132.0,7.843136
510.0,135.0,19.411764
510.0,138.0,32.941177
510.0,141.0,41.17647
510.0,144.0,46.862743
510.0,147.0,48.235294
510.0,150.0,46.47059
510.0,153.0,42.35294
510.0,156.0,33.333332
510.0,159.0,20.784313
510.0,162.0,8.235294
513.0,69.0,2.9411774
513.0,72.0,10.392155
513.0,75.0,22.941175
513.0,78.0,35.098038
513.0,81.0,43.333332
513.0,84.0,48.039215
513.0,87.0,49.411766
513.0,90.0,49.80392
513.0,93.0,49.019608
513.0,96.0,47.2549
513.0,99.0,41.960785
513.0,102.0,31.764706
513.0,105.0,19.607841
513.0,108.0,7.843136
513.0,111.0,1.7647057
513.0,129.0,2.5490189
513.0,132.0,9.411766
513.0,135.0,21.764704
513.0,138.0,34.117645
513.0,141.0,42.7451
513.0,144.0,47.64706
513.0,147.0,48.039215
513.0,150.0,46.47059
513.0,153.0,41.960785
513.0,156.0,33.72549
513.0,159.0,20.588234
513.0,162.0,8.235294
513.0,186.0,1.5686264
513.0,189.0,1.7647057
513.0,192.0,1.1764717
516.0,69.0,2.745098
516.0,72.0,10.196079
516.0,75.0,22.549019
516.0,78.0,35.098038
516.0,81.0,43.333332
516.0,84.0,47.64706
516.0,87.0,49.411766
516.0,90.0,49.80392
516.0,93.0,49.019608
516.0,96.0,46.862743
516.0,99.0,41.17647
516.0,102.0,30.980392
516.0,105.0,18.627449
516.0,108.0,6.8627434
516.0,111.0,1.5686264
516.0,129.0,2.9411774
516.0,132.0,10.392155
516.0,135.0,23.137253
516.0,138.0,35.098038
516.0,141.0,43.333332
516.0,144.0,47.2549
516.0,147.0,48.039215
516.0,150.0,46.862743
516.0,153.0,42.35294
516.0,156.0,33.333332
516.0,159.0,19.411764
516.0,162.0,7.843136
516.0,183.0,1.1764717
516.0,186.0,3.1372528
516.0,189.0,4.509804
516.0,192.0,4.509804
516.0,195.0,3.1372528
516.0,198.0,1.7647057
519.0,69.0,2.5490189
519.0,72.0,9.6078415
519.0,75.0,21.960783
519.0,78.0,34.705883
519.0,81.0,43.333332
519.0,84.0,47.64706
519.0,87.0,49.019608
519.0,90.0,49.80392
519.0,93.0,48.62745
519.0,96.0,45.882355
519.0,99.0,40.588234
519.0,102.0,30.784313
519.0,105.0,17.843136
519.0,108.0,6.2745094
519.0,111.0,1.3725471
519.0,129.0,3.1372528
519.0,132.0,11.372547
519.0,135.0,24.313725
519.0,138.0,36.07843
519.0,141.0,44.117645
519.0,144.0,47.64706
519.0,147.0,48.235294
519.0,150.0,46.862743
519.0,153.0,41.568626
519.0,156.0,31.960783
519.0,159.0,18.823528
519.0,162.0,7.254902
519.0,183.0,1.3725471
519.0,186.0,4.509804
519.0,189.0,8.431374
519.0,192.0,9.411766
519.0,195.0,7.843136
519.0,198.0,5.0980377
519.0,201.0,3.1372528
519.0,204.0,1.5686264
522.0,69.0,2.3529396
522.0,72.0,9.411766
522.0,75.0,22.35294
522.0,78.0,34.117645
522.0,81.0,42.7451
522.0,84.0,47.64706
522.0,87.0,49.411766
522.0,90.0,49.80392
522.0,93.0,48.62745
522.0,96.0,46.27451
522.0,99.0,40.980392
522.0,102.0,30.784313
522.0,105.0,17.450981
522.0,108.0,5.882351
522.0,111.0,1.3725471
522.0,129.0,3.5294113
522.0,132.0,11.764706
522.0,135.0,24.901958
522.0,138.0,36.07843
522.0,141.0,44.509804
522.0,144.0,48.039215
522.0,147.0,48.039215
522.0,150.0,45.882355
522.0,153.0,39.80392
522.0,156.0,30.392157
522.0,159.0,16.666664
522.0,162.0,6.07843
522.0,183.0,1.1764717
522.0,186.0,4.509804
522.0,189.0,9.411766
522.0,192.0,12.745098
522.0,195.0,11.568626
522.0,198.0,8.823528
522.0,201.0,5.882351
522.0,204.0,3.1372528
522.0,207.0,1.7647057
525.0,69.0,2.1568642
525.0,72.0,9.215687
525.0,75.0,21.372547
525.0,78.0,34.313725
525.0,81.0,42.7451
525.0,84.0,47.2549
525.0,87.0,49.019608
525.0,90.0,49.80392
525.0,93.0,48.235294
525.0,96.0,46.27451
525.0,99.0,40.588234
525.0,102.0,30.392157
525.0,105.0,16.666664
525.0,108.0,5.882351
525.0,111.0,1.1764717
525.0,129.0,3.5294113
525.0,132.0,12.15686
525.0,135.0,25.294117
525.0,138.0,36.07843
525.0,141.0,44.509804
525.0,144.0,47.2549
525.0,147.0,46.47059
525.0,150.0,43.333332
525.0,153.0,36.47059
525.0,156.0,25.294117
525.0,159.0,13.137253
525.0,162.0,4.3137245
525.0,186.0,3.1372528
525.0,189.0,7.0588226
525.0,192.0,9.803921
525.0,195.0,10.0
525.0,198.0,7.843136
525.0,201.0,5.294117
525.0,204.0,3.1372528
525.0,207.0,1.5686264
528.0,69.0,1.9607849
528.0,72.0,8.627449
528.0,75.0,20.588234
528.0,78.0,32.941177
528.0,81.0,41.960785
528.0,84.0,47.2549
528.0,87.0,48.62745
528.0,90.0,49.80392
528.0,93.0,48.62745
528.0,96.0,45.882355
528.0,99.0,39.60784
528.0,102.0,29.80392
528.0,105.0,16.470589
528.0,108.0,5.6862755
528.0,111.0,1.1764717
528.0,129.0,3.7254906
528.0,132.0,12.35294
528.0,135.0,25.686274
528.0,138.0,37.058823
528.0,141.0,43.333332
528.0,144.0,46.47059
528.0,147.0,44.117645
528.0,150.0,38.039215
528.0,153.0,29.411764
528.0,156.0,18.039215
528.0,159.0,8.039215
528.0,162.0,2.3529396
528.0,186.0,1.3725471
528.0,189.0,3.1372528
528.0,192.0,4.509804
528.0,195.0,4.705883
528.0,198.0,3.5294113
528.0,201.0,2.3529396
528.0,204.0,1.3725471
531.0,69.0,1.7647057
531.0,72.0,8.039215
531.0,75.0,19.999998
531.0,78.0,32.352943
531.0,81.0,41.960785
531.0,84.0,47.2549
531.0,87.0,48.62745
531.0,90.0,49.80392
531.0,93.0,48.62745
531.0,96.0,45.882355
531.0,99.0,39.80392
531.0,102.0,29.80392
531.0,105.0,16.07843
531.0,108.0,5.6862755
531.0,111.0,1.1764717
531.0,129.0,3.7254906
531.0,132.0,12.35294
531.0,135.0,25.686274
531.0,138.0,35.68627
531.0,141.0,40.980392
531.0,144.0,40.980392
531.0,147.0,36.47059
531.0,150.0,28.823528
531.0,153.0,19.411764
531.0,156.0,10.0
531.0,159.0,3.5294113
531.0,192.0,1.3725471
531.0,195.0,1.1764717
534.0,69.0,1.5686264
534.0,72.0,7.450981
534.0,75.0,18.627449
534.0,78.0,31.960783
534.0,81.0,41.568626
534.0,84.0,46.862743
534.0,87.0,48.235294
534.0,90.0,49.80392
534.0,93.0,48.62745
534.0,96.0,46.27451
534.0,99.0,40.588234
534.0,102.0,29.80392
534.0,105.0,16.470589
534.0,108.0,5.6862755
534.0,111.0,1.1764717
534.0,129.0,3.7254906
534.0,132.0,11.960785
534.0,135.0,24.117645
534.0,138.0,32.352943
534.0,141.0,35.490196
534.0,144.0,34.117645
534.0,147.0,25.882353
534.0,150.0,16.862743
534.0,153.0,9.019608
534.0,156.0,3.5294113
537.0,69.0,1.5686264
537.0,72.0,6.4705887
537.0,75.0,17.843136
537.0,78.0,30.784313
537.0,81.0,40.980392
537.0,84.0,46.27451
537.0,87.0,49.019608
537.0,90.0,49.80392
537.0,93.0,48.62745
537.0,96.0,45.882355
537.0,99.0,40.588234
537.0,102.0,29.80392
537.0,105.0,16.666664
537.0,108.0,5.6862755
537.0,111.0,1.1764717
537.0,129.0,3.1372528
537.0,132.0,10.980392
537.0,135.0,20.784313
537.0,138.0,27.450981
537.0,141.0,26.862745
537.0,144.0,21.764704
537.0,147.0,13.921566
537.0,150.0,6.8627434
537.0,153.0,2.9411774
540.0,69.0,1.3725471
540.0,72.0,5.882351
540.0,75.0,16.470589
540.0,78.0,29.80392
540.0,81.0,40.19608
540.0,84.0,46.27451
540.0,87.0,48.62745
540.0,90.0,49.80392
540.0,93.0,48.62745
540.0,96.0,45.882355
540.0,99.0,40.588234
540.0,102.0,30.0
540.0,105.0,16.862743
540.0,108.0,5.882351
540.0,111.0,1.1764717
540.0,129.0,2.9411774
540.0,132.0,9.6078415
540.0,135.0,16.862743
540.0,138.0,19.999998
540.0,141.0,15.882351
540.0,144.0,10.196079
540.0,147.0,4.705883
540.0,150.0,1.5686264
543.0,69.0,1.1764717
543.0,72.0,5.0980377
543.0,75.0,15.098038
543.0,78.0,28.431372
543.0,81.0,39.60784
543.0,84.0,45.490196
543.0,87.0,48.62745
543.0,90.0,49.80392
543.0,93.0,48.62745
543.0,96.0,46.47059
543.0,99.0,41.17647
543.0,102.0,30.0
543.0,105.0,17.254902
543.0,108.0,6.07843
543.0,111.0,1.3725471
543.0,129.0,2.5490189
543.0,132.0,7.0588226
543.0,135.0,10.980392
543.0,138.0,9.803921
543.0,141.0,6.666668
543.0,144.0,2.9411774
546.0,72.0,4.3137245
546.0,75.0,13.725491
546.0,78.0,26.27451
546.0,81.0,37.843136
546.0,84.0,44.509804
546.0,87.0,48.235294
546.0,90.0,49.411766
546.0,93.0,48.62745
546.0,96.0,46.27451
546.0,99.0,40.980392
546.0,102.0,30.392157
546.0,105.0,18.039215
546.0,108.0,6.4705887
546.0,111.0,1.5686264
546.0,129.0,1.7647057
546.0,132.0,4.3137245
546.0,135.0,5.0980377
546.0,138.0,3.7254906
546.0,141.0,1.5686264
546.0,204.0,1.3725471
546.0,207.0,2.3529396
546.0,210.0,3.333332
546.0,213.0,4.3137245
546.0,216.0,4.9019623
546.0,219.0,4.509804
546.0,222.0,3.5294113
546.0,225.0,1.9607849
549.0,72.0,3.5294113
549.0,75.0,11.372547
549.0,78.0,23.725489
549.0,81.0,36.07843
549.0,84.0,43.333332
549.0,87.0,47.64706
549.0,90.0,49.019608
549.0,93.0,49.019608
549.0,96.0,46.47059
549.0,99.0,41.17647
549.0,102.0,30.980392
549.0,105.0,18.235292
549.0,108.0,6.666668
549.0,111.0,1.5686264
549.0,132.0,1.7647057
549.0,135.0,1.7647057
549.0,195.0,1.5686264
549.0,198.0,2.9411774
549.0,201.0,4.3137245
549.0,204.0,6.2745094
549.0,207.0,8.627449
549.0,210.0,10.980392
549.0,213.0,13.333332
549.0,216.0,15.098038
549.0,219.0,14.705883
549.0,222.0,11.960785
549.0,225.0,7.843136
549.0,228.0,3.5294113
549.0,231.0,1.1764717
552.0,72.0,2.5490189
552.0,75.0,9.019608
552.0,78.0,21.372547
552.0,81.0,33.333332
552.0,84.0,41.568626
552.0,87.0,46.862743
552.0,90.0,49.019608
552.0,93.0,49.019608
552.0,96.0,46.862743
552.0,99.0,41.17647
552.0,102.0,31.960783
552.0,105.0,19.411764
552.0,108.0,7.254902
552.0,111.0,1.7647057
552.0,189.0,1.1764717
552.0,192.0,3.1372528
552.0,195.0,6.2745094
552.0,198.0,9.803921
552.0,201.0,13.137253
552.0,204.0,17.254902
552.0,207.0,20.784313
552.0,210.0,23.529411
552.0,213.0,25.882353
552.0,216.0,27.450981
552.0,219.0,27.450981
552.0,222.0,23.529411
552.0,225.0,17.450981
552.0,228.0,10.0
552.0,231.0,3.5294113
555.0,72.0,1.5686264
555.0,75.0,6.4705887
555.0,78.0,16.862743
555.0,81.0,29.411764
555.0,84.0,39.80392
555.0,87.0,45.490196
555.0,90.0,48.235294
555.0,93.0,48.62745
555.0,96.0,47.2549
555.0,99.0,42.35294
555.0,102.0,32.941177
555.0,105.0,20.196077
555.0,108.0,8.235294
555.0,111.0,1.7647057
555.0,186.0,1.3725471
555.0,189.0,4.509804
555.0,192.0,10.0
555.0,195.0,15.882351
555.0,198.0,21.372547
555.0,201.0,25.882353
555.0,204.0,29.80392
555.0,207.0,32.941177
555.0,210.0,35.68627
555.0,213.0,37.45098
555.0,216.0,39.60784
555.0,219.0,38.82353
555.0,222.0,34.705883
555.0,225.0,27.843138
555.0,228.0,17.450981
555.0,231.0,7.450981
555.0,234.0,2.1568642
558.0,75.0,4.3137245
558.0,78.0,12.745098
558.0,81.0,24.901958
558.0,84.0,36.666664
558.0,87.0,44.117645
558.0,90.0,47.2549
558.0,93.0,48.62745
558.0,96.0,47.64706
558.0,99.0,42.941177
558.0,102.0,34.313725
558.0,105.0,21.17647
558.0,108.0,8.431374
558.0,111.0,1.9607849
558.0,186.0,3.7254906
558.0,189.0,10.0
558.0,192.0,18.627449
558.0,195.0,26.862745
558.0,198.0,32.7451
558.0,201.0,36.666664
558.0,204.0,39.60784
558.0,207.0,41.960785
558.0,210.0,43.72549
558.0,213.0,45.098038
558.0,216.0,45.882355
558.0,219.0,45.098038
558.0,222.0,41.17647
558.0,225.0,34.313725
558.0,228.0,23.529411
558.0,231.0,10.980392
558.0,234.0,3.5294113
561.0,75.0,2.5490189
561.0,78.0,9.411766
561.0,81.0,20.588234
561.0,84.0,33.333332
561.0,87.0,41.568626
561.0,90.0,46.47059
561.0,93.0,48.039215
561.0,96.0,48.039215
561.0,99.0,43.333332
561.0,102.0,34.705883
561.0,105.0,21.960783
561.0,108.0,8.627449
561.0,111.0,1.9607849
561.0,183.0,1.3725471
561.0,186.0,6.4705887
561.0,189.0,15.686272
561.0,192.0,26.862745
561.0,195.0,35.490196
561.0,198.0,40.980392
561.0,201.0,43.72549
561.0,204.0,45.098038
561.0,207.0,46.47059
561.0,210.0,47.2549
561.0,213.0,48.235294
561.0,216.0,48.235294
561.0,219.0,47.2549
561.0,222.0,44.705883
561.0,225.0,37.058823
561.0,228.0,26.862745
561.0,231.0,13.333332
561.0,234.0,4.1176453
564.0,75.0,1.3725471
564.0,78.0,6.07843
564.0,81.0,16.07843
564.0,84.0,29.411764
564.0,87.0,39.215687
564.0,90.0,44.705883
564.0,93.0,48.039215
564.0,96.0,47.64706
564.0,99.0,44.117645
564.0,102.0,35.098038
564.0,105.0,22.35294
564.0,108.0,8.627449
564.0,111.0,1.7647057
564.0,183.0,2.1568642
564.0,186.0,8.627449
564.0,189.0,19.999998
564.0,192.0,31.960783
564.0,195.0,40.19608
564.0,198.0,45.098038
564.0,201.0,47.2549
564.0,204.0,48.039215
564.0,207.0,48.62745
564.0,210.0,49.019608
564.0,213.0,49.80392
564.0,216.0,49.80392
564.0,219.0,48.62745
564.0,222.0,45.490196
564.0,225.0,38.431374
564.0,228.0,28.039215
564.0,231.0,14.705883
564.0,234.0,4.509804
567.0,78.0,3.9215698
567.0,81.0,12.15686
567.0,84.0,25.294117
567.0,87.0,36.07843
567.0,90.0,43.72549
567.0,93.0,46.862743
567.0,96.0,47.2549
567.0,99.0,44.117645
567.0,102.0,34.705883
567.0,105.0,21.17647
567.0,108.0,7.843136
567.0,111.0,1.3725471
567.0,156.0,1.3725471
567.0,159.0,1.9607849
567.0,162.0,1.3725471
567.0,183.0,2.3529396
567.0,186.0,9.215687
567.0,189.0,21.764704
567.0,192.0,33.333332
567.0,195.0,42.7451
567.0,198.0,46.862743
567.0,201.0,48.62745
567.0,204.0,49.411766
567.0,207.0,49.80392
567.0,210.0,49.80392
567.0,213.0,49.80392
567.0,216.0,49.80392
567.0,219.0,48.62745
567.0,222.0,45.490196
567.0,225.0,39.215687
567.0,228.0,29.411764
567.0,231.0,15.098038
567.0,234.0,4.9019623
570.0,78.0,2.5490189
570.0,81.0,9.411766
570.0,84.0,21.17647
570.0,87.0,32.941177
570.0,90.0,41.960785
570.0,93.0,46.27451
570.0,96.0,46.27451
570.0,99.0,41.568626
570.0,102.0,31.960783
570.0,105.0,18.627449
570.0,108.0,5.882351
570.0,153.0,2.9411774
570.0,156.0,5.0980377
570.0,159.0,5.294117
570.0,162.0,3.333332
570.0,183.0,2.3529396
570.0,186.0,9.6078415
570.0,189.0,21.960783
570.0,192.0,34.705883
570.0,195.0,43.72549
570.0,198.0,48.039215
570.0,201.0,49.019608
570.0,204.0,49.80392
570.0,207.0,49.80392
570.0,210.0,49.80392
570.0,213.0,49.80392
570.0,216.0,49.80392
570.0,219.0,48.62745
570.0,222.0,45.882355
570.0,225.0,39.60784
570.0,228.0,28.431372
570.0,231.0,14.901958
570.0,234.0,5.0980377
573.0,78.0,1.5686264
573.0,81.0,6.2745094
573.0,84.0,17.450981
573.0,87.0,29.80392
573.0,90.0,39.80392
573.0,93.0,44.705883
573.0,96.0,44.117645
573.0,99.0,38.82353
573.0,102.0,27.450981
573.0,105.0,13.921566
573.0,108.0,3.7254906
573.0,147.0,1.3725471
573.0,150.0,4.1176453
573.0,153.0,8.823528
573.0,156.0,11.764706
573.0,159.0,10.196079
573.0,162.0,5.0980377
573.0,183.0,2.5490189
573.0,186.0,9.6078415
573.0,189.0,21.764704
573.0,192.0,34.705883
573.0,195.0,42.941177
573.0,198.0,48.039215
573.0,201.0,49.019608
573.0,204.0,49.80392
573.0,207.0,49.80392
573.0,210.0,49.80392
573.0,213.0,49.80392
573.0,216.0,49.411766
573.0,219.0,48.62745
573.0,222.0,45.882355
573.0,225.0,39.60784
573.0,228.0,29.019608
573.0,231.0,15.294117
573.0,234.0,5.0980377
573.0,237.0,1.1764717
576.0,81.0,4.509804
576.0,84.0,13.725491
576.0,87.0,26.862745
576.0,90.0,36.47059
576.0,93.0,41.960785
576.0,96.0,41.568626
576.0,99.0,34.705883
576.0,102.0,21.372547
576.0,105.0,9.019608
576.0,108.0,1.9607849
576.0,144.0,1.3725471
576.0,147.0,4.705883
576.0,150.0,11.372547
576.0,153.0,17.843136
576.0,156.0,19.999998
576.0,159.0,14.705883
576.0,162.0,6.8627434
576.0,183.0,2.5490189
576.0,186.0,9.6078415
576.0,189.0,21.960783
576.0,192.0,34.313725
576.0,195.0,42.7451
576.0,198.0,48.039215
576.0,201.0,49.019608
576.0,204.0,49.80392
576.0,207.0,49.80392
576.0,210.0,49.80392
576.0,213.0,49.80392
576.0,216.0,49.80392
576.0,219.0,48.62745
576.0,222.0,45.882355
576.0,225.0,39.80392
576.0,228.0,29.80392
576.0,231.0,15.294117
576.0,234.0,5.294117
576.0,237.0,1.1764717
579.0,81.0,3.1372528
579.0,84.0,10.980392
579.0,87.0,23.137253
579.0,90.0,33.333332
579.0,93.0,38.431374
579.0,96.0,35.490196
579.0,99.0,26.27451
579.0,102.0,13.333332
579.0,105.0,4.3137245
579.0,144.0,3.5294113
579.0,147.0,10.588234
579.0,150.0,20.588234
579.0,153.0,27.254902
579.0,156.0,25.686274
579.0,159.0,17.254902
579.0,162.0,8.039215
579.0,183.0,2.3529396
579.0,186.0,9.215687
579.0,189.0,21.372547
579.0,192.0,34.117645
579.0,195.0,42.941177
579.0,198.0,47.64706
579.0,201.0,49.019608
579.0,204.0,49.80392
579.0,207.0,49.80392
579.0,210.0,49.80392
579.0,213.0,49.80392
579.0,216.0,49.80392
579.0,219.0,48.62745
579.0,222.0,45.882355
579.0,225.0,39.80392
579.0,228.0,29.80392
579.0,231.0,16.07843
579.0,234.0,5.490196
579.0,237.0,1.1764717
582.0,81.0,2.1568642
582.0,84.0,8.431374
582.0,87.0,19.411764
582.0,90.0,29.019608
582.0,93.0,32.7451
582.0,96.0,27.450981
582.0,99.0,16.862743
582.0,102.0,6.666668
582.0,105.0,1.3725471
582.0,141.0,1.3725471
582.0,144.0,6.666668
582.0,147.0,16.666664
582.0,150.0,27.254902
582.0,153.0,32.941177
582.0,156.0,29.019608
582.0,159.0,19.607841
582.0,162.0,8.235294
582.0,183.0,2.1568642
582.0,186.0,9.019608
582.0,189.0,21.17647
582.0,192.0,34.117645
582.0,195.0,42.7451
582.0,198.0,47.64706
582.0,201.0,49.019608
582.0,204.0,49.80392
582.0,207.0,49.80392
582.0,210.0,49.80392
582.0,213.0,49.80392
582.0,216.0,49.80392
582.0,219.0,49.019608
582.0,222.0,46.27451
582.0,225.0,40.19608
582.0,228.0,29.80392
582.0,231.0,16.470589
582.0,234.0,5.490196
582.0,237.0,1.1764717
585.0,81.0,1.3725471
585.0,84.0,6.07843
585.0,87.0,16.470589
585.0,90.0,25.686274
585.0,93.0,26.470589
585.0,96.0,19.607841
585.0,99.0,9.215687
585.0,102.0,2.5490189
585.0,141.0,1.7647057
585.0,144.0,7.843136
585.0,147.0,19.215685
585.0,150.0,30.392157
585.0,153.0,35.098038
585.0,156.0,30.784313
585.0,159.0,19.999998
585.0,162.0,8.627449
585.0,183.0,2.1568642
585.0,186.0,9.019608
585.0,189.0,21.372547
585.0,192.0,33.333332
585.0,195.0,42.7451
585.0,198.0,47.2549
585.0,201.0,49.019608
585.0,204.0,49.80392
585.0,207.0,49.80392
585.0,210.0,49.80392
585.0,213.0,49.80392
585.0,216.0,49.411766
585.0,219.0,48.62745
585.0,222.0,45.882355
585.0,225.0,40.588234
585.0,228.0,30.0
585.0,231.0,16.470589
585.0,234.0,5.490196
585.0,237.0,1.1764717
588.0,84.0,4.509804
588.0,87.0,11.960785
588.0,90.0,19.215685
588.0,93.0,18.627449
588.0,96.0,10.784313
588.0,99.0,3.9215698
588.0,141.0,1.5686264
588.0,144.0,6.8627434
588.0,147.0,17.843136
588.0,150.0,28.039215
588.0,153.0,33.72549
588.0,156.0,30.392157
588.0,159.0,19.411764
588.0,162.0,8.627449
588.0,183.0,1.9607849
588.0,186.0,8.823528
588.0,189.0,20.588234
588.0,192.0,33.72549
588.0,195.0,42.35294
588.0,198.0,46.862743
588.0,201.0,49.019608
588.0,204.0,49.80392
588.0,207.0,49.80392
588.0,210.0,49.80392
588.0,213.0,49.80392
588.0,216.0,49.80392
588.0,219.0,48.62745
588.0,222.0,46.27451
588.0,225.0,39.80392
588.0,228.0,29.80392
588.0,231.0,16.07843
588.0,234.0,5.6862755
588.0,237.0,1.1764717
591.0,84.0,3.1372528
591.0,87.0,8.627449
591.0,90.0,13.137253
591.0,93.0,10.784313
591.0,96.0,5.0980377
591.0,99.0,1.1764717
591.0,144.0,4.705883
591.0,147.0,13.333332
591.0,150.0,23.529411
591.0,153.0,30.784313
591.0,156.0,28.039215
591.0,159.0,19.215685
591.0,162.0,8.823528
591.0,183.0,2.1568642
591.0,186.0,8.627449
591.0,189.0,20.196077
591.0,192.0,32.941177
591.0,195.0,42.35294
591.0,198.0,47.2549
591.0,201.0,49.019608
591.0,204.0,49.80392
591.0,207.0,49.80392
591.0,210.0,49.80392
591.0,213.0,49.80392
591.0,216.0,49.80392
591.0,219.0,49.019608
591.0,222.0,46.27451
591.0,225.0,40.19608
591.0,228.0,30.0
591.0,231.0,16.470589
591.0,234.0,5.6862755
591.0,237.0,1.1764717
594.0,84.0,1.7647057
594.0,87.0,5.0980377
594.0,90.0,7.6470566
594.0,93.0,5.294117
594.0,96.0,1.5686264
594.0,144.0,2.5490189
594.0,147.0,8.431374
594.0,150.0,18.039215
594.0,153.0,25.294117
594.0,156.0,26.470589
594.0,159.0,19.411764
594.0,162.0,8.823528
594.0,183.0,1.9607849
594.0,186.0,8.235294
594.0,189.0,20.196077
594.0,192.0,33.333332
594.0,195.0,42.35294
594.0,198.0,47.2549
594.0,201.0,48.62745
594.0,204.0,49.411766
594.0,207.0,49.80392
594.0,210.0,49.80392
594.0,213.0,49.80392
594.0,216.0,49.80392
594.0,219.0,48.62745
594.0,222.0,45.882355
594.0,225.0,40.588234
594.0,228.0,30.0
594.0,231.0,16.470589
594.0,234.0,5.6862755
594.0,237.0,1.1764717
597.0,84.0,1.1764717
597.0,87.0,3.1372528
597.0,90.0,3.5294113
597.0,93.0,1.9607849
597.0,144.0,1.1764717
597.0,147.0,4.509804
597.0,150.0,11.764706
597.0,153.0,19.607841
597.0,156.0,22.941175
597.0,159.0,17.450981
597.0,162.0,8.431374
597.0,183.0,1.9607849
597.0,186.0,8.431374
597.0,189.0,19.607841
597.0,192.0,33.72549
597.0,195.0,42.35294
597.0,198.0,47.2549
597.0,201.0,48.62745
597.0,204.0,49.411766
597.0,207.0,49.80392
597.0,210.0,49.80392
597.0,213.0,49.80392
597.0,216.0,49.80392
597.0,219.0,48.62745
597.0,222.0,45.882355
597.0,225.0,40.19608
597.0,228.0,29.80392
597.0,231.0,16.666664
597.0,234.0,5.6862755
597.0,237.0,1.1764717
600.0,87.0,1.1764717
600.0,90.0,1.3725471
600.0,147.0,1.9607849
600.0,150.0,6.2745094
600.0,153.0,13.137253
600.0,156.0,18.235292
600.0,159.0,15.882351
600.0,162.0,8.039215
600.0,183.0,1.7647057
600.0,186.0,8.039215
600.0,189.0,19.607841
600.0,192.0,32.352943
600.0,195.0,41.568626
600.0,198.0,46.862743
600.0,201.0,48.62745
600.0,204.0,49.411766
600.0,207.0,49.80392
600.0,210.0,49.80392
600.0,213.0,49.80392
600.0,216.0,49.411766
600.0,219.0,48.62745
600.0,222.0,45.882355
600.0,225.0,39.80392
600.0,228.0,30.0
600.0,231.0,16.666664
600.0,234.0,5.6862755
600.0,237.0,1.1764717
603.0,123.0,1.5686264
603.0,126.0,1.5686264
603.0,150.0,2.9411774
603.0,153.0,7.843136
603.0,156.0,12.745098
603.0,159.0,12.745098
603.0,162.0,7.0588226
603.0,183.0,1.7647057
603.0,186.0,8.039215
603.0,189.0,19.411764
603.0,192.0,32.352943
603.0,195.0,41.568626
603.0,198.0,46.862743
603.0,201.0,48.62745
603.0,204.0,49.411766
603.0,207.0,49.80392
603.0,210.0,49.80392
603.0,213.0,49.80392
603.0,216.0,49.411766
603.0,219.0,48.62745
603.0,222.0,45.882355
603.0,225.0,40.19608
603.0,228.0,30.0
603.0,231.0,16.470589
603.0,234.0,5.6862755
603.0,237.0,1.1764717
606.0,120.0,2.9411774
606.0,123.0,5.0980377
606.0,126.0,4.509804
606.0,129.0,2.1568642
606.0,150.0,1.1764717
606.0,153.0,3.5294113
606.0,156.0,7.6470566
606.0,159.0,8.823528
606.0,162.0,5.490196
606.0,183.0,1.5686264
606.0,186.0,7.6470566
606.0,189.0,18.823528
606.0,192.0,32.352943
606.0,195.0,41.568626
606.0,198.0,46.47059
606.0,201.0,48.62745
606.0,204.0,49.411766
606.0,207.0,49.80392
606.0,210.0,49.80392
606.0,213.0,49.80392
606.0,216.0,49.411766
606.0,219.0,48.62745
606.0,222.0,45.882355
606.0,225.0,39.80392
606.0,228.0,29.80392
606.0,231.0,16.470589
606.0,234.0,5.6862755
606.0,237.0,1.1764717
609.0,117.0,2.745098
609.0,120.0,7.6470566
609.0,123.0,11.568626
609.0,126.0,10.0
609.0,129.0,5.0980377
609.0,132.0,1.5686264
609.0,153.0,1.3725471
609.0,156.0,3.7254906
609.0,159.0,5.0980377
609.0,162.0,4.1176453
609.0,183.0,1.7647057
609.0,186.0,7.6470566
609.0,189.0,18.627449
609.0,192.0,31.37255
609.0,195.0,41.568626
609.0,198.0,46.47059
609.0,201.0,48.62745
609.0,204.0,49.411766
609.0,207.0,49.80392
609.0,210.0,49.80392
609.0,213.0,49.80392
609.0,216.0,49.411766
609.0,219.0,48.62745
609.0,222.0,45.490196
609.0,225.0,39.80392
609.0,228.0,29.411764
609.0,231.0,16.666664
609.0,234.0,5.294117
609.0,237.0,1.1764717
612.0,114.0,1.7647057
612.0,117.0,7.450981
612.0,120.0,15.294117
612.0,123.0,19.999998
612.0,126.0,17.843136
612.0,129.0,10.588234
612.0,132.0,4.1176453
612.0,135.0,1.1764717
612.0,156.0,1.3725471
612.0,159.0,2.5490189
612.0,162.0,2.5490189
612.0,183.0,1.5686264
612.0,186.0,7.254902
612.0,189.0,18.823528
612.0,192.0,31.764706
612.0,195.0,41.17647
612.0,198.0,46.862743
612.0,201.0,48.62745
612.0,204.0,49.411766
612.0,207.0,49.80392
612.0,210.0,49.80392
612.0,213.0,49.80392
612.0,216.0,49.411766
612.0,219.0,48.235294
612.0,222.0,45.490196
612.0,225.0,40.19608
612.0,228.0,29.411764
612.0,231.0,15.686272
612.0,234.0,5.490196
612.0,237.0,1.1764717
615.0,114.0,4.9019623
615.0,117.0,14.901958
615.0,120.0,24.117645
615.0,123.0,29.80392
615.0,126.0,26.470589
615.0,129.0,17.843136
615.0,132.0,9.019608
615.0,135.0,2.745098
615.0,162.0,1.1764717
615.0,183.0,1.3725471
615.0,186.0,6.666668
615.0,189.0,17.843136
615.0,192.0,30.784313
615.0,195.0,40.980392
615.0,198.0,46.47059
615.0,201.0,48.62745
615.0,204.0,49.411766
615.0,207.0,49.80392
615.0,210.0,49.80392
615.0,213.0,49.80392
615.0,216.0,49.80392
615.0,219.0,48.039215
615.0,222.0,45.490196
615.0,225.0,39.215687
615.0,228.0,28.823528
615.0,231.0,15.686272
615.0,234.0,5.0980377
615.0,237.0,1.1764717
618.0,111.0,2.5490189
618.0,114.0,10.588234
618.0,117.0,22.549019
618.0,120.0,32.941177
618.0,123.0,37.058823
618.0,126.0,34.313725
618.0,129.0,25.882353
618.0,132.0,15.098038
618.0,135.0,6.666668
618.0,138.0,1.9607849
618.0,183.0,1.1764717
618.0,186.0,5.882351
618.0,189.0,16.07843
618.0,192.0,28.431372
618.0,195.0,39.60784
618.0,198.0,45.098038
618.0,201.0,48.039215
618.0,204.0,49.019608
618.0,207.0,49.80392
618.0,210.0,49.411766
618.0,213.0,49.411766
618.0,216.0,49.411766
618.0,219.0,48.62745
618.0,222.0,45.490196
618.0,225.0,38.82353
618.0,228.0,28.039215
618.0,231.0,14.901958
618.0,234.0,5.0980377
621.0,111.0,5.6862755
621.0,114.0,16.470589
621.0,117.0,29.411764
621.0,120.0,38.431374
621.0,123.0,42.35294
621.0,126.0,40.588234
621.0,129.0,33.333332
621.0,132.0,23.137253
621.0,135.0,12.745098
621.0,138.0,5.0980377
621.0,141.0,1.3725471
621.0,186.0,4.509804
621.0,189.0,13.333332
621.0,192.0,25.294117
621.0,195.0,36.666664
621.0,198.0,42.7451
621.0,201.0,46.27451
621.0,204.0,48.235294
621.0,207.0,48.62745
621.0,210.0,49.411766
621.0,213.0,49.80392
621.0,216.0,49.411766
621.0,219.0,48.235294
621.0,222.0,45.098038
621.0,225.0,38.82353
621.0,228.0,27.450981
621.0,231.0,13.725491
621.0,234.0,4.509804
624.0,108.0,1.7647057
624.0,111.0,8.039215
624.0,114.0,20.588234
624.0,117.0,33.333332
624.0,120.0,41.568626
624.0,123.0,45.098038
624.0,126.0,44.509804
624.0,129.0,39.60784
624.0,132.0,30.980392
624.0,135.0,19.607841
624.0,138.0,10.392155
624.0,141.0,3.9215698
624.0,144.0,1.3725471
624.0,186.0,2.9411774
624.0,189.0,9.215687
624.0,192.0,18.823528
624.0,195.0,29.80392
624.0,198.0,37.45098
624.0,201.0,42.35294
624.0,204.0,45.098038
624.0,207.0,46.47059
624.0,210.0,48.235294
624.0,213.0,48.235294
624.0,216.0,49.019608
624.0,219.0,47.64706
624.0,222.0,44.509804
624.0,225.0,35.68627
624.0,228.0,24.901958
624.0,231.0,12.745098
624.0,234.0,3.7254906
627.0,108.0,1.9607849
627.0,111.0,8.627449
627.0,114.0,20.196077
627.0,117.0,32.941177
627.0,120.0,40.588234
627.0,123.0,45.098038
627.0,126.0,45.490196
627.0,129.0,42.941177
627.0,132.0,37.058823
627.0,135.0,28.823528
627.0,138.0,19.215685
627.0,141.0,9.6078415
627.0,144.0,3.9215698
627.0,147.0,1.1764717
627.0,186.0,1.3725471
627.0,189.0,4.9019623
627.0,192.0,12.15686
627.0,195.0,20.784313
627.0,198.0,29.019608
627.0,201.0,34.313725
627.0,204.0,39.215687
627.0,207.0,41.960785
627.0,210.0,44.509804
627.0,213.0,46.47059
627.0,216.0,46.862743
627.0,219.0,45.490196
627.0,222.0,41.17647
627.0,225.0,32.352943
627.0,228.0,21.960783
627.0,231.0,10.0
627.0,234.0,2.745098
630.0,108.0,1.5686264
630.0,111.0,6.4705887
630.0,114.0,15.686272
630.0,117.0,26.862745
630.0,120.0,35.68627
630.0,123.0,42.35294
630.0,126.0,45.098038
630.0,129.0,44.705883
630.0,132.0,41.960785
630.0,135.0,36.07843
630.0,138.0,28.431372
630.0,141.0,18.235292
630.0,144.0,9.6078415
630.0,147.0,4.1176453
630.0,150.0,1.1764717
630.0,189.0,1.7647057
630.0,192.0,5.0980377
630.0,195.0,10.588234
630.0,198.0,17.254902
630.0,201.0,23.725489
630.0,204.0,29.411764
630.0,207.0,34.705883
630.0,210.0,37.843136
630.0,213.0,40.588234
630.0,216.0,41.568626
630.0,219.0,40.19608
630.0,222.0,34.313725
630.0,225.0,26.470589
630.0,228.0,15.294117
630.0,231.0,6.07843
630.0,234.0,1.3725471
633.0,111.0,3.5294113
633.0,114.0,9.215687
633.0,117.0,18.039215
633.0,120.0,26.862745
633.0,123.0,34.705883
633.0,126.0,40.588234
633.0,129.0,44.509804
633.0,132.0,44.117645
633.0,135.0,41.960785
633.0,138.0,36.07843
633.0,141.0,27.254902
633.0,144.0,17.843136
633.0,147.0,9.6078415
633.0,150.0,4.3137245
633.0,153.0,1.3725471
633.0,192.0,1.5686264
633.0,195.0,3.9215698
633.0,198.0,7.450981
633.0,201.0,11.764706
633.0,204.0,17.254902
633.0,207.0,22.35294
633.0,210.0,27.254902
633.0,213.0,30.784313
633.0,216.0,32.7451
633.0,219.0,30.392157
633.0,222.0,24.901958
633.0,225.0,17.450981
633.0,228.0,8.627449
633.0,231.0,2.9411774
636.0,111.0,1.1764717
636.0,114.0,3.7254906
636.0,117.0,9.411766
636.0,120.0,16.666664
636.0,123.0,25.294117
636.0,126.0,33.72549
636.0,129.0,40.19608
636.0,132.0,43.333332
636.0,135.0,43.72549
636.0,138.0,41.568626
636.0,141.0,35.68627
636.0,144.0,28.823528
636.0,147.0,19.411764
636.0,150.0,11.372547
636.0,153.0,5.490196
636.0,156.0,1.9607849
636.0,198.0,1.9607849
636.0,201.0,3.7254906
636.0,204.0,6.666668
636.0,207.0,10.784313
636.0,210.0,14.901958
636.0,213.0,18.235292
636.0,216.0,19.999998
636.0,219.0,18.627449
636.0,222.0,14.3137245
636.0,225.0,8.235294
636.0,228.0,3.333332
639.0,114.0,1.1764717
639.0,117.0,3.5294113
639.0,120.0,8.039215
639.0,123.0,15.294117
639.0,126.0,24.705881
639.0,129.0,31.960783
639.0,132.0,38.039215
639.0,135.0,42.7451
639.0,138.0,43.72549
639.0,141.0,41.568626
639.0,144.0,37.058823
639.0,147.0,29.411764
639.0,150.0,21.17647
639.0,153.0,13.137253
639.0,156.0,6.07843
639.0,159.0,1.9607849
639.0,204.0,1.9607849
639.0,207.0,3.333332
639.0,210.0,5.294117
639.0,213.0,7.254902
639.0,216.0,8.627449
639.0,219.0,7.843136
639.0,222.0,5.0980377
639.0,225.0,2.3529396
642.0,120.0,3.1372528
642.0,123.0,7.450981
642.0,126.0,14.3137245
642.0,129.0,22.941175
642.0,132.0,30.980392
642.0,135.0,38.039215
642.0,138.0,41.960785
642.0,141.0,43.333332
642.0,144.0,41.568626
642.0,147.0,37.843136
642.0,150.0,31.764706
642.0,153.0,23.137253
642.0,156.0,13.137253
642.0,159.0,5.294117
642.0,162.0,1.3725471
642.0,210.0,1.1764717
642.0,213.0,1.7647057
642.0,216.0,2.3529396
642.0,219.0,1.9607849
642.0,222.0,1.1764717
645.0,123.0,2.5490189
645.0,126.0,6.4705887
645.0,129.0,13.137253
645.0,132.0,21.372547
645.0,135.0,29.80392
645.0,138.0,36.07843
645.0,141.0,40.588234
645.0,144.0,42.941177
645.0,147.0,42.7451
645.0,150.0,38.431374
645.0,153.0,31.37255
645.0,156.0,21.764704
645.0,159.0,10.784313
645.0,162.0,3.1372528
648.0,126.0,2.1568642
648.0,129.0,5.294117
648.0,132.0,10.980392
648.0,135.0,18.627449
648.0,138.0,26.470589
648.0,141.0,34.117645
648.0,144.0,38.82353
648.0,147.0,41.568626
648.0,150.0,40.980392
648.0,153.0,36.666664
648.0,156.0,28.039215
648.0,159.0,15.882351
648.0,162.0,5.882351
651.0,96.0,1.9607849
651.0,99.0,2.1568642
651.0,102.0,1.3725471
651.0,129.0,1.7647057
651.0,132.0,4.3137245
651.0,135.0,9.411766
651.0,138.0,16.470589
651.0,141.0,24.117645
651.0,144.0,30.784313
651.0,147.0,36.47059
651.0,150.0,39.215687
651.0,153.0,38.039215
651.0,156.0,31.37255
651.0,159.0,19.607841
651.0,162.0,8.039215
654.0,93.0,2.1568642
654.0,96.0,5.882351
654.0,99.0,7.0588226
654.0,102.0,4.509804
654.0,105.0,2.1568642
654.0,132.0,1.1764717
654.0,135.0,3.1372528
654.0,138.0,7.450981
654.0,141.0,13.137253
654.0,144.0,19.999998
654.0,147.0,27.254902
654.0,150.0,32.7451
654.0,153.0,34.705883
654.0,156.0,30.392157
654.0,159.0,20.784313
654.0,162.0,9.019608
654.0,189.0,1.1764717
657.0,93.0,4.509804
657.0,96.0,10.980392
657.0,99.0,14.117645
657.0,102.0,11.372547
657.0,105.0,6.666668
657.0,108.0,2.9411774
657.0,138.0,2.3529396
657.0,141.0,5.294117
657.0,144.0,10.392155
657.0,147.0,16.862743
657.0,150.0,23.529411
657.0,153.0,27.843138
657.0,156.0,26.470589
657.0,159.0,18.823528
657.0,162.0,8.823528
657.0,189.0,1.3725471
657.0,192.0,1.3725471
660.0,90.0,1.7647057
660.0,93.0,8.235294
660.0,96.0,18.039215
660.0,99.0,23.137253
660.0,102.0,21.372547
660.0,105.0,15.294117
660.0,108.0,8.235294
660.0,111.0,3.5294113
660.0,114.0,1.1764717
660.0,141.0,1.3725471
660.0,144.0,3.5294113
660.0,147.0,7.254902
660.0,150.0,12.745098
660.0,153.0,17.450981
660.0,156.0,18.235292
660.0,159.0,13.333332
660.0,162.0,6.2745094
663.0,90.0,3.1372528
663.0,93.0,12.15686
663.0,96.0,24.117645
663.0,99.0,30.980392
663.0,102.0,30.784313
663.0,105.0,24.901958
663.0,108.0,16.862743
663.0,111.0,9.6078415
663.0,114.0,4.3137245
663.0,117.0,1.3725471
663.0,147.0,2.3529396
663.0,150.0,4.9019623
663.0,153.0,8.039215
663.0,156.0,9.6078415
663.0,159.0,7.843136
663.0,162.0,3.7254906
666.0,90.0,4.509804
666.0,93.0,15.882351
666.0,96.0,29.019608
666.0,99.0,37.45098
666.0,102.0,37.843136
666.0,105.0,35.490196
666.0,108.0,26.862745
666.0,111.0,18.235292
666.0,114.0,10.784313
666.0,117.0,5.294117
666.0,120.0,1.9607849
666.0,150.0,1.1764717
666.0,153.0,2.1568642
666.0,156.0,3.333332
666.0,159.0,2.9411774
666.0,162.0,1.5686264
669.0,90.0,6.4705887
669.0,93.0,19.411764
669.0,96.0,32.941177
669.0,99.0,41.17647
669.0,102.0,43.333332
669.0,105.0,41.568626
669.0,108.0,35.68627
669.0,111.0,28.039215
669.0,114.0,20.784313
669.0,117.0,12.35294
669.0,120.0,6.2745094
669.0,123.0,2.5490189
672.0,87.0,1.3725471
672.0,90.0,8.431374
672.0,93.0,22.35294
672.0,96.0,35.490196
672.0,99.0,44.117645
672.0,102.0,46.862743
672.0,105.0,46.27451
672.0,108.0,43.333332
672.0,111.0,38.039215
672.0,114.0,30.392157
672.0,117.0,22.35294
672.0,120.0,14.901958
672.0,123.0,8.235294
672.0,126.0,3.9215698
672.0,129.0,1.3725471
675.0,87.0,1.9607849
675.0,90.0,9.803921
675.0,93.0,24.705881
675.0,96.0,37.843136
675.0,99.0,45.098038
675.0,102.0,48.235294
675.0,105.0,48.039215
675.0,108.0,46.47059
675.0,111.0,43.72549
675.0,114.0,39.215687
675.0,117.0,32.941177
675.0,120.0,24.901958
675.0,123.0,17.843136
675.0,126.0,10.588234
675.0,129.0,5.294117
675.0,132.0,2.1568642
675.0,204.0,1.1764717
675.0,207.0,1.5686264
675.0,210.0,2.3529396
675.0,213.0,2.745098
675.0,216.0,2.9411774
675.0,219.0,2.1568642
675.0,222.0,1.1764717
678.0,87.0,2.5490189
678.0,90.0,11.764706
678.0,93.0,27.450981
678.0,96.0,39.215687
678.0,99.0,46.27451
678.0,102.0,49.411766
678.0,105.0,49.411766
678.0,108.0,48.62745
678.0,111.0,46.862743
678.0,114.0,44.509804
678.0,117.0,40.588234
678.0,120.0,35.098038
678.0,123.0,28.431372
678.0,126.0,20.784313
678.0,129.0,12.745098
678.0,132.0,6.8627434
678.0,135.0,2.9411774
678.0,195.0,1.1764717
678.0,198.0,2.3529396
678.0,201.0,3.5294113
678.0,204.0,5.882351
678.0,207.0,7.254902
678.0,210.0,9.215687
678.0,213.0,10.196079
678.0,216.0,10.196079
678.0,219.0,8.039215
678.0,222.0,4.9019623
678.0,225.0,1.9607849
681.0,87.0,3.1372528
681.0,90.0,13.137253
681.0,93.0,28.431372
681.0,96.0,40.588234
681.0,99.0,46.47059
681.0,102.0,49.019608
681.0,105.0,49.80392
681.0,108.0,49.411766
681.0,111.0,48.235294
